# .PCD v.5 - Point Cloud Data file format
VERSION .5
FIELDS x y z
SIZE 4 4 4
TYPE F F F
COUNT 1 1 1
WIDTH 1321
HEIGHT 1
POINTS 1321
DATA ascii
0.067072348	-0.019164181	0.99756405
0.139173101	0	0.990268069
0.101599396	0.095114219	0.990268069
0.009166445	0.138870905	0.990268069
-0.088215987	0.107643354	0.990268069
-0.13796563	0.018293083	0.990268069
-0.113219846	-0.080934656	0.990268069
-0.027340279	-0.136461208	0.990268069
0.073301847	-0.118304654	0.990268069
0.13436417	-0.036268743	0.990268069
0.207911691	0	0.978147601
0.182092206	0.100347894	0.978147601
0.111046529	0.175772409	0.978147601
0.012420256	0.207540378	0.978147601
-0.089290833	0.1877616	0.978147601
-0.168824782	0.121348524	0.978147601
-0.206427765	0.024796148	0.978147601
-0.192760341	-0.07791484	0.978147601
-0.131217083	-0.161274141	0.978147601
-0.037083473	-0.204577827	0.978147601
0.066260548	-0.197070574	0.978147601
0.153147455	-0.140616955	0.978147601
0.20199717	-0.049238342	0.978147601
0.275637356	0	0.961261696
0.255982987	0.102218698	0.961261696
0.199822798	0.189859952	0.961261696
0.115165811	0.250425214	0.961261696
0.014084989	0.275277251	0.961261696
-0.089004499	0.260871906	0.961261696
-0.179401024	0.209263529	0.961261696
-0.244213108	0.127812009	0.961261696
-0.274197878	0.028133175	0.961261696
-0.265079195	-0.075557741	0.961261696
-0.218157478	-0.168473341	0.961261696
-0.140124248	-0.237362901	0.961261696
-0.042107852	-0.272402057	0.961261696
0.061913559	-0.268593863	0.961261696
0.157105457	-0.226481406	0.961261696
0.229892492	-0.152070359	0.961261696
0.26989448	-0.055972506	0.961261696
0.342020143	0	0.939692621
0.326113443	0.103091227	0.939692621
0.279872921	0.196593303	0.939692621
0.207599693	0.271809025	0.939692621
0.116016339	0.321742113	0.939692621
0.01364159	0.341747985	0.939692621
-0.090002048	0.329965771	0.939692621
-0.18527404	0.287491406	0.939692621
-0.263312552	0.218275694	0.939692621
-0.31685874	0.128756814	0.939692621
-0.340931944	0.027261469	0.939692621
-0.333292967	-0.076769633	0.939692621
-0.294652357	-0.173659918	0.939692621
-0.228604314	-0.254397024	0.939692621
-0.141292376	-0.311471095	0.939692621
-0.040837963	-0.339573319	0.939692621
0.063415041	-0.336089737	0.939692621
0.161769421	-0.301344376	0.939692621
0.24507663	-0.238569117	0.939692621
0.305587751	-0.153603075	0.939692621
0.337674272	-0.054349464	0.939692621
0.406736643	0	0.913545458
0.393330199	0.103566651	0.913545458
0.353994647	0.200305983	0.913545458
0.291323064	0.283840746	0.913545458
0.209446886	0.348664163	0.913545458
0.113763553	0.390502946	0.913545458
0.0105807	0.406598999	0.913545458
-0.093299653	0.395891237	0.913545458
-0.191029508	0.359085539	0.913545458
-0.276166318	0.298608208	0.913545458
-0.343097695	0.218446031	0.913545458
-0.387411391	0.123883457	0.913545458
-0.406186158	0.02115424	0.913545458
-0.398184326	-0.082969507	0.913545458
-0.363933393	-0.181623739	0.913545458
-0.305691246	-0.268304973	0.913545458
-0.227297326	-0.337299011	0.913545458
-0.133919514	-0.384057627	0.913545458
-0.031713461	-0.405498401	0.913545458
0.072583206	-0.400207915	0.913545458
0.172095043	-0.368534928	0.913545458
0.260262034	-0.312567386	0.913545458
0.331272034	-0.235994781	0.913545458
0.380443923	-0.14386493	0.913545458
0.404536193	-0.042251218	0.913545458
0.469471563	0	0.882947593
0.457840578	0.10385352	0.882947593
0.423523929	0.202561176	0.882947593
0.368221982	0.291232073	0.882947593
0.294674906	0.365472637	0.882947593
0.206526906	0.4216043	0.882947593
0.108145649	0.45684578	0.882947593
0.004405856	0.469450888	0.882947593
-0.099552245	0.458795051	0.882947593
-0.198577605	0.425406257	0.882947593
-0.287763591	0.370938895	0.882947593
-0.362691103	0.298091785	0.882947593
-0.419647538	0.210474446	0.882947593
-0.455810746	0.112428253	0.882947593
-0.469388867	0.008811324	0.882947593
-0.459709116	-0.095242201	0.882947593
-0.427251117	-0.194576544	0.882947593
-0.373623139	-0.284269763	0.882947593
-0.30148241	-0.359877625	0.882947593
-0.214403449	-0.417653815	0.882947593
-0.116700955	-0.454735566	0.882947593
-0.013216015	-0.469285505	0.882947593
0.090923768	-0.460582692	0.882947593
0.190558347	-0.429058347	0.882947593
0.280750899	-0.376274476	0.882947593
0.357032451	-0.304846481	0.882947593
0.415623308	-0.218313568	0.882947593
0.453620336	-0.120963379	0.882947593
0.46914081	-0.017619543	0.882947593
0.529919264	0	0.848048096
0.519605819	0.104039507	0.848048096
0.489066931	0.20402932	0.848048096
0.439491314	0.296077374	0.848048096
0.372808678	0.376600739	0.848048096
0.291614617	0.442465074	0.848048096
0.199069576	0.491106638	0.848048096
0.098775835	0.520632078	0.848048096
-0.005362716	0.529892129	0.848048096
-0.109292525	0.518526345	0.848048096
-0.208968167	0.486977137	0.848048096
-0.300509809	0.436472543	0.848048096
-0.380354231	0.368978435	0.848048096
-0.44539352	0.287121994	0.848048096
-0.493096049	0.194089446	0.848048096
-0.521605017	0.093502046	0.848048096
-0.529810724	-0.010724882	0.848048096
-0.517393766	-0.114534349	0.848048096
-0.484837469	-0.213885613	0.848048096
-0.433409072	-0.304911468	0.848048096
-0.365110405	-0.384068769	0.848048096
-0.282599965	-0.448276351	0.848048096
-0.189089438	-0.49503496	0.848048096
-0.088218682	-0.522524536	0.848048096
0.01608595	-0.52967506	0.848048096
0.119764443	-0.516208199	0.848048096
0.218781154	-0.482648146	0.848048096
0.309281899	-0.430301213	0.848048096
0.387743972	-0.361204981	0.848048096
0.451113271	-0.278048994	0.848048096
0.496923171	-0.184070064	0.848048096
0.523390541	-0.082926282	0.848048096
0.587785252	0	0.809016994
0.578481471	0.10416665	0.809016994
0.550864656	0.205035688	0.809016994
0.505809077	0.299413895	0.809016994
0.44474106	0.384313533	0.809016994
0.369593842	0.457046929	0.809016994
0.282746362	0.515311554	0.809016994
0.186947959	0.557262921	0.809016994
0.08523133	0.581572973	0.809016994
-0.019183474	0.587472125	0.809016994
-0.122990985	0.574773625	0.809016994
-0.222904961	0.543879473	0.809016994
-0.315762417	0.495767686	0.809016994
-0.398623758	0.431961343	0.809016994
-0.468865836	0.354480367	0.809016994
-0.524264992	0.265777578	0.809016994
-0.563067451	0.168661047	0.809016994
-0.584044839	0.066205201	0.809016994
-0.586533075	-0.038346508	0.809016994
-0.570453388	-0.141684279	0.809016994
-0.536314814	-0.24053674	0.809016994
-0.48519808	-0.331774511	0.809016994
-0.418721393	-0.41250927	0.809016994
-0.338989211	-0.480185191	0.809016994
-0.248525621	-0.532659853	0.809016994
-0.150194436	-0.56827206	0.809016994
-0.047108534	-0.585894435	0.809016994
0.057468687	-0.584969104	0.809016994
0.160226616	-0.565525361	0.809016994
0.257912239	-0.528178738	0.809016994
0.347433115	-0.47411152	0.809016994
0.425955274	-0.405035317	0.809016994
0.490992933	-0.323136879	0.809016994
0.540487191	-0.231008872	0.809016994
0.572871205	-0.131567799	0.809016994
0.58711979	-0.027961675	0.809016994
0.64278761	0	0.766044443
0.63427625	0.104257136	0.766044443
0.608967572	0.205753267	0.766044443
0.567531819	0.301800506	0.766044443
0.511066318	0.389855267	0.766044443
0.441066426	0.467585627	0.766044443
0.359385926	0.53293308	0.766044443
0.268187933	0.584167051	0.766044443
0.169887613	0.61993073	0.766044443
0.067088218	0.639277	0.766044443
-0.037487851	0.641693519	0.766044443
-0.141071142	0.627116292	0.766044443
-0.240918495	0.595931363	0.766044443
-0.334385688	0.548964592	0.766044443
-0.418997461	0.487459782	0.766044443
-0.49251307	0.413045745	0.766044443
-0.552985627	0.327693161	0.766044443
-0.598813658	0.233662393	0.766044443
-0.628783516	0.133443625	0.766044443
-0.642101519	0.029690917	0.766044443
-0.638414971	-0.074848086	0.766044443
-0.617821502	-0.177404913	0.766044443
-0.580866481	-0.275263587	0.766044443
-0.528528575	-0.365832552	0.766044443
-0.462193832	-0.446713301	0.766044443
-0.38361897	-0.515763897	0.766044443
-0.29488486	-0.571155697	0.766044443
-0.198341418	-0.61142178	0.766044443
-0.096545369	-0.635495793	0.766044443
0.007807458	-0.642740192	0.766044443
0.111953522	-0.632963127	0.766044443
0.21313476	-0.60642352	0.766044443
0.308671625	-0.563824209	0.766044443
0.396034047	-0.506293339	0.766044443
0.472908436	-0.435354479	0.766044443
0.537258957	-0.352886277	0.766044443
0.587381435	-0.261072711	0.766044443
0.621948496	-0.162345248	0.766044443
0.640044711	-0.059318452	0.766044443
0.69465837	0	0.7193398
0.686780055	0.10432357	0.7193398
0.66332381	0.206280814	0.7193398
0.624821683	0.303559081	0.7193398
0.572147001	0.393951851	0.7193398
0.50649456	0.475408784	0.7193398
0.429353526	0.54608223	0.7193398
0.342473655	0.604369132	0.7193398
0.247825604	0.648947395	0.7193398
0.147556234	0.67880587	0.7193398
0.043939912	0.69326729	0.7193398
-0.060673081	0.692003634	0.7193398
-0.163909853	0.675043563	0.7193398
-0.263428729	0.642771776	0.7193398
-0.356972368	0.59592028	0.7193398
-0.44241896	0.535551786	0.7193398
-0.517830356	0.463035607	0.7193398
-0.581496035	0.380016595	0.7193398
-0.631971895	0.288377834	0.7193398
-0.668113015	0.190197925	0.7193398
-0.689099621	0.08770384	0.7193398
-0.694455684	-0.016779592	0.7193398
-0.684059714	-0.12088242	0.7193398
-0.658147518	-0.222243326	0.7193398
-0.617306852	-0.318563183	0.7193398
-0.562464086	-0.407657213	0.7193398
-0.494863195	-0.487504533	0.7193398
-0.41603754	-0.556294002	0.7193398
-0.327775088	-0.6124653	0.7193398
-0.232077858	-0.654744316	0.7193398
-0.131116508	-0.682172055	0.7193398
-0.027181101	-0.694126386	0.7193398
0.077370844	-0.690336153	0.7193398
0.18016782	-0.670887329	0.7193398
0.278878129	-0.636221063	0.7193398
0.371262768	-0.587123674	0.7193398
0.455226216	-0.524708818	0.7193398
0.528863969	-0.450392222	0.7193398
0.590505733	-0.365859578	0.7193398
0.638753315	-0.273028302	0.7193398
0.672512337	-0.174004045	0.7193398
0.691017058	-0.071032931	0.7193398
0.743144825	0	0.669130606
0.735778769	0.104373532	0.669130606
0.713826626	0.206677961	0.669130606
0.677723575	0.304885204	0.669130606
0.628185323	0.397048399	0.669130606
0.566193918	0.481340502	0.669130606
0.492978278	0.556090505	0.669130606
0.40998983	0.619816562	0.669130606
0.318873739	0.671255369	0.669130606
0.221436291	0.709387201	0.669130606
0.119609087	0.733456132	0.669130606
0.015410751	0.74298502	0.669130606
-0.089093088	0.737784964	0.669130606
-0.191830744	0.71795905	0.669130606
-0.290765545	0.683900307	0.669130606
-0.383936207	0.636283915	0.669130606
-0.469495712	0.576053824	0.669130606
-0.545747929	0.504404034	0.669130606
-0.611181232	0.422754933	0.669130606
-0.664498471	0.332725133	0.669130606
-0.704642684	0.236099385	0.669130606
-0.730818052	0.134793201	0.669130606
-0.742505673	0.030814874	0.669130606
-0.739473854	-0.073774327	0.669130606
-0.721782695	-0.176901024	0.669130606
-0.689782908	-0.276520834	0.669130606
-0.644108856	-0.370658892	0.669130606
-0.585665981	-0.457449003	0.669130606
-0.515612858	-0.535170639	0.669130606
-0.435338218	-0.602283046	0.669130606
-0.346433429	-0.657455786	0.669130606
-0.250660939	-0.699595115	0.669130606
-0.149919343	-0.727865662	0.669130606
-0.046205745	-0.741706991	0.669130606
0.058423837	-0.740844712	0.669130606
0.161895224	-0.725295918	0.669130606
0.262157198	-0.695368848	0.669130606
0.357222164	-0.651656779	0.669130606
0.445205554	-0.595026257	0.669130606
0.524363184	-0.526599927	0.669130606
0.593125831	-0.447734274	0.669130606
0.650130345	-0.359992732	0.669130606
0.694246666	-0.265114688	0.669130606
0.724600234	-0.164981009	0.669130606
0.740589317	-0.061576743	0.669130606
0.788010754	0	0.615661475
0.781062817	0.1044118	0.615661475
0.760341527	0.206982391	0.615661475
0.726212286	0.30590303	0.615661475
0.679276932	0.399429339	0.615661475
0.62036313	0.485912064	0.615661475
0.550509772	0.56382616	0.615661475
0.47094866	0.631797679	0.615661475
0.383082785	0.688628004	0.615661475
0.288461583	0.733314982	0.615661475
0.188753616	0.765070598	0.615661475
0.085717145	0.78333487	0.615661475
-0.018830871	0.787785723	0.615661475
-0.123046822	0.778344671	0.615661475
-0.225092951	0.755178198	0.615661475
-0.323169765	0.718694825	0.615661475
-0.415547765	0.669537902	0.615661475
-0.500597947	0.608574271	0.615661475
-0.576820527	0.536878969	0.615661475
-0.642871386	0.455716281	0.615661475
-0.697585776	0.366517439	0.615661475
-0.739998857	0.270855386	0.615661475
-0.769362711	0.170417037	0.615661475
-0.785159534	0.066973534	0.615661475
-0.787110762	-0.037650988	0.615661475
-0.775181986	-0.141611568	0.615661475
-0.749583561	-0.243074953	0.615661475
-0.710766892	-0.340251926	0.615661475
-0.659416476	-0.431428857	0.615661475
-0.596437833	-0.514997921	0.615661475
-0.522941536	-0.589485452	0.615661475
-0.440223627	-0.653577927	0.615661475
-0.349742763	-0.706145132	0.615661475
-0.253094494	-0.746260092	0.615661475
-0.151983127	-0.773215414	0.615661475
-0.048191672	-0.786535766	0.615661475
0.056449601	-0.785986253	0.615661475
0.160095435	-0.771576568	0.615661475
0.260918127	-0.743560811	0.615661475
0.357139758	-0.702433015	0.615661475
0.447063545	-0.648918434	0.615661475
0.529103762	-0.58396075	0.615661475
0.601813701	-0.508705433	0.615661475
0.663911186	-0.424479545	0.615661475
0.714301185	-0.332768336	0.615661475
0.752095113	-0.23518905	0.615661475
0.776626507	-0.133462414	0.615661475
0.787462779	-0.029382286	0.615661475
0.829037573	0	0.559192903
0.822432532	0.104441502	0.559192903
0.802722656	0.207218809	0.559192903
0.770222006	0.306694242	0.559192903
0.725448456	0.401282735	0.559192903
0.669115439	0.489477095	0.559192903
0.602120576	0.56987201	0.559192903
0.525531382	0.64118645	0.559192903
0.440568246	0.702284072	0.559192903
0.348584991	0.752191333	0.559192903
0.251047299	0.790112998	0.559192903
0.149509361	0.815444816	0.559192903
0.045589105	0.827783142	0.559192903
-0.059057579	0.826931375	0.559192903
-0.162763226	0.812903087	0.559192903
-0.263875364	0.785921808	0.559192903
-0.36078285	0.746417465	0.559192903
-0.451941536	0.695019528	0.559192903
-0.535898878	0.632546985	0.559192903
-0.611317081	0.559995289	0.559192903
-0.676994412	0.478520494	0.559192903
-0.731884353	0.38942084	0.559192903
-0.775112275	0.294116062	0.559192903
-0.805989374	0.194124769	0.559192903
-0.824023647	0.091040246	0.559192903
-0.828927731	-0.013494934	0.559192903
-0.820623484	-0.117815083	0.559192903
-0.799243228	-0.220257938	0.559192903
-0.76512764	-0.319191151	0.559192903
-0.718820327	-0.413038297	0.559192903
-0.66105916	-0.500303992	0.559192903
-0.592764519	-0.579597724	0.559192903
-0.515024628	-0.649656009	0.559192903
-0.429078212	-0.70936252	0.559192903
-0.336294761	-0.757765881	0.559192903
-0.238152711	-0.79409482	0.559192903
-0.136215878	-0.817770464	0.559192903
-0.032108549	-0.828415559	0.559192903
0.072510405	-0.825860483	0.559192903
0.175973961	-0.810145951	0.559192903
0.276633506	-0.781522361	0.559192903
0.372885107	-0.740445807	0.559192903
0.463195068	-0.687570815	0.559192903
0.546124369	-0.623739906	0.559192903
0.620351595	-0.549970177	0.559192903
0.684693991	-0.467437092	0.559192903
0.738126311	-0.377455754	0.559192903
0.77979715	-0.281459946	0.559192903
0.809042517	-0.180979289	0.559192903
0.825396407	-0.077614865	0.559192903
0.866025404	0	0.5
0.85970176	0.104464746	0.5
0.84082318	0.207403907	0.5
0.809665361	0.307314176	0.5
0.766683328	0.402736482	0.5
0.712504784	0.492277293	0.5
0.647920941	0.574628971	0.5
0.573874971	0.648588866	0.5
0.49144823	0.71307688	0.5
0.401844463	0.767151241	0.5
0.306372229	0.810022257	0.5
0.206425786	0.841063847	0.5
0.103464737	0.859822684	0.5
-0.001007293	0.866024818	0.5
-0.105464613	0.859579674	0.5
-0.208381746	0.840581375	0.5
-0.308255708	0.80930737	0.5
-0.403627956	0.766214378	0.5
-0.49310569	0.711931723	0.5
-0.575382194	0.647252139	0.5
-0.649255914	0.573120195	0.5
-0.713648012	0.490618503	0.5
-0.767618117	0.400951901	0.5
-0.810378058	0.305429867	0.5
-0.841303376	0.205447387	0.5
-0.859942445	0.102464589	0.5
-0.866023061	-0.002014585	0.5
-0.859456424	-0.106464338	0.5
-0.840338433	-0.209359304	0.5
-0.808948283	-0.309196822	0.5
-0.765744391	-0.404518884	0.5
-0.711357699	-0.49393342	0.5
-0.646582461	-0.576134638	0.5
-0.572364644	-0.649922083	0.5
-0.489788111	-0.714218178	0.5
-0.400058796	-0.768083953	0.5
-0.304487092	-0.810732762	0.5
-0.20446871	-0.841541768	0.5
-0.101464301	-0.860061042	0.5
0.003021874	-0.866020132	0.5
0.107463919	-0.859332012	0.5
0.210336578	-0.840094354	0.5
0.310137519	-0.808588102	0.5
0.405409264	-0.765273369	0.5
0.494760482	-0.710782713	0.5
0.576886302	-0.645911909	0.5
0.650587374	-0.571608318	0.5
0.714787379	-0.488957057	0.5
0.768548751	-0.399165151	0.5
0.811086369	-0.303543905	0.5
0.841779021	-0.203489756	0.5
0.860178475	-0.100463877	0.5
0.898794046	0	0.438371147
0.892700422	0.104482989	0.438371147
0.874502174	0.207549235	0.438371147
0.844446064	0.307801205	0.438371147
0.80293964	0.403879527	0.438371147
0.750545709	0.494481422	0.438371147
0.68797471	0.578378367	0.438371147
0.616075079	0.654432758	0.438371147
0.535821743	0.72161333	0.438371147
0.448302901	0.779009144	0.438371147
0.35470527	0.82584194	0.438371147
0.256297992	0.861476684	0.438371147
0.154415427	0.885430186	0.438371147
0.050439058	0.897377646	0.438371147
-0.054221243	0.897157062	0.438371147
-0.158146328	0.884771426	0.438371147
-0.259927019	0.860388681	0.438371147
-0.358183214	0.824339446	0.438371147
-0.451582604	0.777112533	0.438371147
-0.538858733	0.719348318	0.438371147
-0.618828177	0.651830059	0.438371147
-0.690406584	0.575473272	0.438371147
-0.752623383	0.491313322	0.438371147
-0.804634943	0.400491381	0.438371147
-0.845736009	0.304238955	0.438371147
-0.875369268	0.203861182	0.438371147
-0.893132908	0.100719143	0.438371147
-0.898786061	-0.003788604	0.438371147
-0.892252073	-0.108244979	0.438371147
-0.873619542	-0.2112336	0.438371147
-0.843141116	-0.311357987	0.438371147
-0.80123007	-0.407260497	0.438371147
-0.748454699	-0.497640735	0.438371147
-0.685530613	-0.581273185	0.438371147
-0.613311036	-0.657023828	0.438371147
-0.532775232	-0.723865519	0.438371147
-0.445015232	-0.780891914	0.438371147
-0.351221023	-0.827329759	0.438371147
-0.252664412	-0.86254938	0.438371147
-0.150681783	-0.886073213	0.438371147
-0.046655976	-0.897582285	0.438371147
0.058002465	-0.896920538	0.438371147
0.161874419	-0.884096946	0.438371147
0.263551427	-0.859285391	0.438371147
0.361654795	-0.822822306	0.438371147
0.454854283	-0.775202115	0.438371147
0.541886149	-0.717070526	0.438371147
0.621570278	-0.649215778	0.438371147
0.69282619	-0.572557952	0.438371147
0.754687685	-0.488136493	0.438371147
0.806315949	-0.39709612	0.438371147
0.847010926	-0.300671298	0.438371147
0.876220809	-0.200169508	0.438371147
0.893549526	-0.096953507	0.438371147
0.927183855	0	0.374606593
0.92127641	0.104497257	0.374606593
0.903629353	0.20766293	0.374606593
0.874467556	0.308182402	0.374606593
0.834162622	0.404774777	0.374606593
0.783228146	0.496209201	0.374606593
0.722313175	0.581320546	0.374606593
0.652193935	0.659024257	0.374606593
0.573763938	0.728330175	0.374606593
0.4880226	0.78835515	0.374606593
0.396062502	0.838334298	0.374606593
0.299055472	0.877630745	0.374606593
0.198237647	0.905743747	0.374606593
0.094893726	0.922315066	0.374606593
-0.009659404	0.927133537	0.374606593
-0.114089446	0.920137761	0.374606593
-0.217065674	0.901416881	0.374606593
-0.317275883	0.871209455	0.374606593
-0.413443119	0.829900408	0.374606593
-0.504341945	0.778016132	0.374606593
-0.588814059	0.716217777	0.374606593
-0.665783051	0.645292824	0.374606593
-0.734268124	0.566145054	0.374606593
-0.793396588	0.479783029	0.374606593
-0.842414982	0.387307239	0.374606593
-0.880698678	0.289896083	0.374606593
-0.907759834	0.188790848	0.374606593
-0.923253616	0.085279896	0.374606593
-0.926982591	-0.019317759	0.374606593
-0.918899242	-0.123669253	0.374606593
-0.899106571	-0.226444857	0.374606593
-0.867856794	-0.326334927	0.374606593
-0.825548119	-0.422066587	0.374606593
-0.772719675	-0.51241995	0.374606593
-0.710044642	-0.596243663	0.374606593
-0.638321675	-0.672469582	0.374606593
-0.558464723	-0.740126377	0.374606593
-0.471491384	-0.798351912	0.374606593
-0.378509939	-0.846404233	0.374606593
-0.28070523	-0.883671021	0.374606593
-0.179323559	-0.909677394	0.374606593
-0.075656809	-0.924091958	0.374606593
0.028974018	-0.926731032	0.374606593
0.133235636	-0.917560987	0.374606593
0.235799463	-0.896698675	0.374606593
0.335358552	-0.864409939	0.374606593
0.430644244	-0.821106226	0.374606593
0.520442337	-0.767339348	0.374606593
0.603608553	-0.703794441	0.374606593
0.679083125	-0.631281244	0.374606593
0.745904298	-0.550723777	0.374606593
0.803220585	-0.463148564	0.374606593
0.850301617	-0.369671556	0.374606593
0.886547453	-0.271483909	0.374606593
0.91149622	-0.169836805	0.374606593
0.924830002	-0.06602551	0.374606593
0.951056516	0	0.309016994
0.945297052	0.10450828	0.309016994
0.928088416	0.207750786	0.309016994
0.899639035	0.308477072	0.309016994
0.860293479	0.405467171	0.309016994
0.810528291	0.497546366	0.309016994
0.750946213	0.58359942	0.309016994
0.682268885	0.662584082	0.309016994
0.60532811	0.733543712	0.309016994
0.52105577	0.795618867	0.309016994
0.43047255	0.848057711	0.309016994
0.334675568	0.890225118	0.309016994
0.23482509	0.92161037	0.309016994
0.132130476	0.941833337	0.309016994
0.027835535	0.950649084	0.309016994
-0.076796542	0.947950836	0.309016994
-0.180498481	0.933771276	0.309016994
-0.282014273	0.908282141	0.309016994
-0.380114388	0.871792148	0.309016994
-0.473610664	0.824743255	0.309016994
-0.561370702	0.767705303	0.309016994
-0.642331575	0.701369121	0.309016994
-0.71551271	0.626538154	0.309016994
-0.780027756	0.544118734	0.309016994
-0.835095326	0.455109101	0.309016994
-0.880048457	0.360587314	0.309016994
-0.914342688	0.261698196	0.309016994
-0.937562659	0.159639462	0.309016994
-0.949427135	0.055647221	0.309016994
-0.949792416	-0.049019004	0.309016994
-0.93865408	-0.153091525	0.309016994
-0.91614703	-0.255309844	0.309016994
-0.882543865	-0.354435922	0.309016994
-0.838251578	-0.449269173	0.309016994
-0.783806623	-0.538661001	0.309016994
-0.719868424	-0.621528719	0.309016994
-0.647211381	-0.696868657	0.309016994
-0.566715496	-0.763768318	0.309016994
-0.479355713	-0.821417432	0.309016994
-0.386190109	-0.869117769	0.309016994
-0.288347078	-0.906291597	0.309016994
-0.187011669	-0.932488677	0.309016994
-0.083411228	-0.947391716	0.309016994
0.021199467	-0.950820214	0.309016994
0.1255534	-0.942732646	0.309016994
0.228386665	-0.923226965	0.309016994
0.328453776	-0.892539419	0.309016994
0.424542747	-0.851041687	0.309016994
0.515489776	-0.799236378	0.309016994
0.600193338	-0.737750943	0.309016994
0.677627527	-0.667330077	0.309016994
0.746854483	-0.588826697	0.309016994
0.807035747	-0.503191614	0.309016994
0.857442422	-0.411462016	0.309016994
0.897463996	-0.314748905	0.309016994
0.926615739	-0.214223645	0.309016994
0.944544573	-0.111103768	0.309016994
0.951033349	-0.006638234	0.309016994
0.970295726	0	0.241921896
0.964650238	0.104516579	0.241921896
0.947779467	0.207816936	0.241921896
0.919879732	0.308699004	0.241921896
0.881275693	0.405988854	0.241921896
0.832416571	0.49855436	0.241921896
0.77387092	0.585318371	0.241921896
0.706320017	0.665271245	0.241921896
0.630549925	0.737482602	0.241921896
0.547442355	0.801112142	0.241921896
0.457964397	0.855419434	0.241921896
0.363157275	0.899772521	0.241921896
0.264124225	0.933655285	0.241921896
0.162017657	0.956673442	0.241921896
0.058025749	0.968559141	0.241921896
-0.046641383	0.96917407	0.241921896
-0.150765767	0.958511074	0.241921896
-0.253135745	0.936694236	0.241921896
-0.352560074	0.903977428	0.241921896
-0.44788179	0.860741366	0.241921896
-0.53799167	0.80748917	0.241921896
-0.621841137	0.744840518	0.241921896
-0.698454466	0.673524428	0.241921896
-0.766940135	0.594370781	0.241921896
-0.826501202	0.508300658	0.241921896
-0.876444577	0.416315626	0.241921896
-0.916189085	0.319486081	0.241921896
-0.945272236	0.218938794	0.241921896
-0.9633556	0.115843795	0.241921896
-0.970228746	0.011400765	0.241921896
-0.965811694	-0.093174932	0.241921896
-0.950155844	-0.196666387	0.241921896
-0.923443378	-0.297869306	0.241921896
-0.885985139	-0.395606029	0.241921896
-0.838217014	-0.488739229	0.241921896
-0.780694863	-0.57618515	0.241921896
-0.714088052	-0.656926214	0.241921896
-0.639171659	-0.730022867	0.241921896
-0.556817458	-0.794624512	0.241921896
-0.467983777	-0.849979401	0.241921896
-0.373704338	-0.89544339	0.241921896
-0.275076239	-0.930487431	0.241921896
-0.173247179	-0.95470373	0.241921896
-0.069402104	-0.96781049	0.241921896
0.035250578	-0.969655193	0.241921896
0.139493062	-0.960216373	0.241921896
0.242112316	-0.939603865	0.241921896
0.341914197	-0.90805753	0.241921896
0.437737348	-0.865944462	0.241921896
0.528466709	-0.813754714	0.241921896
0.613046496	-0.752095599	0.241921896
0.690492485	-0.681684623	0.241921896
0.759903464	-0.603341132	0.241921896
0.820471725	-0.51797678	0.241921896
0.871492456	-0.426584922	0.241921896
0.912371948	-0.33022905	0.241921896
0.9426345	-0.230030424	0.241921896
0.961927959	-0.127155018	0.241921896
0.970027813	-0.022799955	0.241921896
0.984807753	0	0.173648178
0.979245298	0.104522519	0.173648178
0.962620769	0.207864297	0.173648178
0.935121965	0.308857929	0.173648178
0.897059529	0.406362538	0.173648178
0.848863432	0.499276661	0.173648178
0.791078125	0.586550689	0.173648178
0.724356379	0.667198731	0.173648178
0.64945192	0.740309742	0.173648178
0.567210908	0.805057822	0.173648178
0.478562381	0.860711542	0.173648178
0.384507759	0.906642208	0.173648178
0.286109534	0.942330963	0.173648178
0.184479265	0.967374649	0.173648178
0.080765019	0.981490358	0.173648178
-0.02386159	0.984518631	0.173648178
-0.128218647	0.97642526	0.173648178
-0.231127278	0.957301672	0.173648178
-0.331424972	0.927363897	0.173648178
-0.427978715	0.886950128	0.173648178
-0.519697783	0.8365169	0.173648178
-0.605546069	0.776633934	0.173648178
-0.684553787	0.7079777	0.173648178
-0.755828421	0.631323774	0.173648178
-0.818564818	0.54753808	0.173648178
-0.872054272	0.457567106	0.173648178
-0.915692539	0.362427212	0.173648178
-0.948986658	0.263193147	0.173648178
-0.971560521	0.160985913	0.173648178
-0.983159121	0.056960097	0.173648178
-0.983651435	-0.04770917	0.173648178
-0.973031901	-0.151839489	0.173648178
-0.951420482	-0.254254549	0.173648178
-0.919061314	-0.353797415	0.173648178
-0.876319942	-0.449343598	0.173648178
-0.823679196	-0.539813757	0.173648178
-0.761733733	-0.624185894	0.173648178
-0.691183322	-0.701506897	0.173648178
-0.612824937	-0.770903306	0.173648178
-0.527543758	-0.831591182	0.173648178
-0.436303165	-0.882884964	0.173648178
-0.34013386	-0.924205209	0.173648178
-0.240122222	-0.955085142	0.173648178
-0.137398037	-0.975175928	0.173648178
-0.03312173	-0.984250609	0.173648178
0.071528737	-0.982206674	0.173648178
0.175371177	-0.969067212	0.173648178
0.277232532	-0.944980653	0.173648178
0.375962121	-0.910219091	0.173648178
0.470444643	-0.865175213	0.173648178
0.559612772	-0.810357856	0.173648178
0.64245922	-0.746386268	0.173648178
0.718048107	-0.673983105	0.173648178
0.785525543	-0.593966272	0.173648178
0.844129265	-0.507239681	0.173648178
0.893197256	-0.414783041	0.173648178
0.932175218	-0.317640793	0.173648178
0.960622834	-0.216910306	0.173648178
0.978218746	-0.113729485	0.173648178
0.98476418	-0.009263915	0.173648178
0.994521895	0	0.104528463
0.989013671	0.104526351	0.104528463
0.972550015	0.207894851	0.104528463
0.945313296	0.308960472	0.104528463
0.907605219	0.406603698	0.104528463
0.859843481	0.499742922	0.104528463
0.802557146	0.587346429	0.104528463
0.736380782	0.668443823	0.104528463
0.662047432	0.742136779	0.104528463
0.580380496	0.807608989	0.104528463
0.492284611	0.86413521	0.104528463
0.398735626	0.911089294	0.104528463
0.300769794	0.947951123	0.104528463
0.199472296	0.974312375	0.104528463
0.095965218	0.989881042	0.104528463
-0.008604879	0.994484669	0.104528463
-0.113079659	0.98807226	0.104528463
-0.216301841	0.970714847	0.104528463
-0.31712802	0.9426047	0.104528463
-0.41444133	0.904053198	0.104528463
-0.50716382	0.855487382	0.104528463
-0.59426839	0.797445221	0.104528463
-0.674790173	0.730569656	0.104528463
-0.747837218	0.655601477	0.104528463
-0.812600372	0.573371115	0.104528463
-0.868362247	0.484789447	0.104528463
-0.914505161	0.390837703	0.104528463
-0.950517983	0.2925566	0.104528463
-0.976001794	0.191034809	0.104528463
-0.990674307	0.087396901	0.104528463
-0.994372992	-0.017209114	0.104528463
-0.987056878	-0.121624502	0.104528463
-0.968807008	-0.224692639	0.104528463
-0.939825537	-0.325271826	0.104528463
-0.900433496	-0.422247936	0.104528463
-0.851067237	-0.51454675	0.104528463
-0.792273596	-0.601145863	0.104528463
-0.724703838	-0.681086006	0.104528463
-0.649106442	-0.753481671	0.104528463
-0.566318809	-0.817530921	0.104528463
-0.477257989	-0.872524276	0.104528463
-0.382910521	-0.917852566	0.104528463
-0.284321504	-0.953013685	0.104528463
-0.18258302	-0.977618147	0.104528463
-0.07882204	-0.991393406	0.104528463
0.025812061	-0.994186873	0.104528463
0.130160239	-0.985967602	0.104528463
0.233066615	-0.966826641	0.104528463
0.333391282	-0.936976015	0.104528463
0.430022931	-0.896746385	0.104528463
0.521891159	-0.846583379	0.104528463
0.607978332	-0.78704266	0.104528463
0.68733085	-0.718783766	0.104528463
0.759069715	-0.642562812	0.104528463
0.822400267	-0.559224106	0.104528463
0.876620984	-0.469690803	0.104528463
0.921131257	-0.374954673	0.104528463
0.95543804	-0.276065122	0.104528463
0.979161312	-0.174117562	0.104528463
0.992038287	-0.070241279	0.104528463
0.999390827	0	0.034899497
0.993909389	0.10452823	0.034899497
0.977525205	0.207909832	0.034899497
0.950418002	0.309010755	0.034899497
0.912885134	0.406721966	0.034899497
0.865338319	0.499971617	0.034899497
0.808299126	0.587736801	0.034899497
0.742393249	0.669054772	0.034899497
0.668343647	0.743033509	0.034899497
0.58696261	0.808861496	0.034899497
0.499142853	0.86581663	0.034899497
0.40584772	0.913274139	0.034899497
0.308100616	0.950713435	0.034899497
0.206973786	0.977723825	0.034899497
0.103576544	0.994009016	0.034899497
-0.000956887	0.999390369	0.034899497
-0.10547982	0.993808851	0.034899497
-0.208845687	0.97732569	0.034899497
-0.309920609	0.950121698	0.034899497
-0.40759584	0.912495291	0.034899497
-0.500799924	0.864859215	0.034899497
-0.588510454	0.807736015	0.034899497
-0.669765285	0.741752309	0.034899497
-0.743673087	0.667631908	0.034899497
-0.809423124	0.58618788	0.034899497
-0.866294148	0.498313631	0.034899497
-0.913662308	0.404973101	0.034899497
-0.951007996	0.307190196	0.034899497
-0.977921548	0.20603755	0.034899497
-0.994107732	0.102624763	0.034899497
-0.999388995	-0.001913772	0.034899497
-0.993707402	-0.106431314	0.034899497
-0.977125278	-0.209781351	0.034899497
-0.949824523	-0.31083018	0.034899497
-0.912104612	-0.408469339	0.034899497
-0.864379318	-0.501627771	0.034899497
-0.807172164	-0.589283567	0.034899497
-0.741110689	-0.670475183	0.034899497
-0.666919558	-0.744311983	0.034899497
-0.585412614	-0.80998401	0.034899497
-0.497483952	-0.866770871	0.034899497
-0.404098112	-0.914049638	0.034899497
-0.306279494	-0.951301686	0.034899497
-0.205101125	-0.978118374	0.034899497
-0.101672888	-0.994205537	0.034899497
0.002870656	-0.999386704	0.034899497
0.10738271	-0.993605042	0.034899497
0.210716823	-0.976923971	0.034899497
0.311739466	-0.949526477	0.034899497
0.409342465	-0.911713097	0.034899497
0.502455158	-0.863898628	0.034899497
0.59005614	-0.806607573	0.034899497
0.671184467	-0.74046839	0.034899497
0.744950198	-0.666206596	0.034899497
0.810544154	-0.58463681	0.034899497
0.867246799	-0.496653817	0.034899497
0.914436131	-0.403222751	0.034899497
0.951594503	-0.30536851	0.034899497
0.978314304	-0.204164512	0.034899497
0.99430243	-0.100720919	0.034899497
0.999390827	0	-0.034899497
0.993909389	0.10452823	-0.034899497
0.977525205	0.207909832	-0.034899497
0.950418002	0.309010755	-0.034899497
0.912885134	0.406721966	-0.034899497
0.865338319	0.499971617	-0.034899497
0.808299126	0.587736801	-0.034899497
0.742393249	0.669054772	-0.034899497
0.668343647	0.743033509	-0.034899497
0.58696261	0.808861496	-0.034899497
0.499142853	0.86581663	-0.034899497
0.40584772	0.913274139	-0.034899497
0.308100616	0.950713435	-0.034899497
0.206973786	0.977723825	-0.034899497
0.103576544	0.994009016	-0.034899497
-0.000956887	0.999390369	-0.034899497
-0.10547982	0.993808851	-0.034899497
-0.208845687	0.97732569	-0.034899497
-0.309920609	0.950121698	-0.034899497
-0.40759584	0.912495291	-0.034899497
-0.500799924	0.864859215	-0.034899497
-0.588510454	0.807736015	-0.034899497
-0.669765285	0.741752309	-0.034899497
-0.743673087	0.667631908	-0.034899497
-0.809423124	0.58618788	-0.034899497
-0.866294148	0.498313631	-0.034899497
-0.913662308	0.404973101	-0.034899497
-0.951007996	0.307190196	-0.034899497
-0.977921548	0.20603755	-0.034899497
-0.994107732	0.102624763	-0.034899497
-0.999388995	-0.001913772	-0.034899497
-0.993707402	-0.106431314	-0.034899497
-0.977125278	-0.209781351	-0.034899497
-0.949824523	-0.31083018	-0.034899497
-0.912104612	-0.408469339	-0.034899497
-0.864379318	-0.501627771	-0.034899497
-0.807172164	-0.589283567	-0.034899497
-0.741110689	-0.670475183	-0.034899497
-0.666919558	-0.744311983	-0.034899497
-0.585412614	-0.80998401	-0.034899497
-0.497483952	-0.866770871	-0.034899497
-0.404098112	-0.914049638	-0.034899497
-0.306279494	-0.951301686	-0.034899497
-0.205101125	-0.978118374	-0.034899497
-0.101672888	-0.994205537	-0.034899497
0.002870656	-0.999386704	-0.034899497
0.10738271	-0.993605042	-0.034899497
0.210716823	-0.976923971	-0.034899497
0.311739466	-0.949526477	-0.034899497
0.409342465	-0.911713097	-0.034899497
0.502455158	-0.863898628	-0.034899497
0.59005614	-0.806607573	-0.034899497
0.671184467	-0.74046839	-0.034899497
0.744950198	-0.666206596	-0.034899497
0.810544154	-0.58463681	-0.034899497
0.867246799	-0.496653817	-0.034899497
0.914436131	-0.403222751	-0.034899497
0.951594503	-0.30536851	-0.034899497
0.978314304	-0.204164512	-0.034899497
0.99430243	-0.100720919	-0.034899497
0.994521895	0	-0.104528463
0.989013671	0.104526351	-0.104528463
0.972550015	0.207894851	-0.104528463
0.945313296	0.308960472	-0.104528463
0.907605219	0.406603698	-0.104528463
0.859843481	0.499742922	-0.104528463
0.802557146	0.587346429	-0.104528463
0.736380782	0.668443823	-0.104528463
0.662047432	0.742136779	-0.104528463
0.580380496	0.807608989	-0.104528463
0.492284611	0.86413521	-0.104528463
0.398735626	0.911089294	-0.104528463
0.300769794	0.947951123	-0.104528463
0.199472296	0.974312375	-0.104528463
0.095965218	0.989881042	-0.104528463
-0.008604879	0.994484669	-0.104528463
-0.113079659	0.98807226	-0.104528463
-0.216301841	0.970714847	-0.104528463
-0.31712802	0.9426047	-0.104528463
-0.41444133	0.904053198	-0.104528463
-0.50716382	0.855487382	-0.104528463
-0.59426839	0.797445221	-0.104528463
-0.674790173	0.730569656	-0.104528463
-0.747837218	0.655601477	-0.104528463
-0.812600372	0.573371115	-0.104528463
-0.868362247	0.484789447	-0.104528463
-0.914505161	0.390837703	-0.104528463
-0.950517983	0.2925566	-0.104528463
-0.976001794	0.191034809	-0.104528463
-0.990674307	0.087396901	-0.104528463
-0.994372992	-0.017209114	-0.104528463
-0.987056878	-0.121624502	-0.104528463
-0.968807008	-0.224692639	-0.104528463
-0.939825537	-0.325271826	-0.104528463
-0.900433496	-0.422247936	-0.104528463
-0.851067237	-0.51454675	-0.104528463
-0.792273596	-0.601145863	-0.104528463
-0.724703838	-0.681086006	-0.104528463
-0.649106442	-0.753481671	-0.104528463
-0.566318809	-0.817530921	-0.104528463
-0.477257989	-0.872524276	-0.104528463
-0.382910521	-0.917852566	-0.104528463
-0.284321504	-0.953013685	-0.104528463
-0.18258302	-0.977618147	-0.104528463
-0.07882204	-0.991393406	-0.104528463
0.025812061	-0.994186873	-0.104528463
0.130160239	-0.985967602	-0.104528463
0.233066615	-0.966826641	-0.104528463
0.333391282	-0.936976015	-0.104528463
0.430022931	-0.896746385	-0.104528463
0.521891159	-0.846583379	-0.104528463
0.607978332	-0.78704266	-0.104528463
0.68733085	-0.718783766	-0.104528463
0.759069715	-0.642562812	-0.104528463
0.822400267	-0.559224106	-0.104528463
0.876620984	-0.469690803	-0.104528463
0.921131257	-0.374954673	-0.104528463
0.95543804	-0.276065122	-0.104528463
0.979161312	-0.174117562	-0.104528463
0.992038287	-0.070241279	-0.104528463
0.984807753	0	-0.173648178
0.979245298	0.104522519	-0.173648178
0.962620769	0.207864297	-0.173648178
0.935121965	0.308857929	-0.173648178
0.897059529	0.406362538	-0.173648178
0.848863432	0.499276661	-0.173648178
0.791078125	0.586550689	-0.173648178
0.724356379	0.667198731	-0.173648178
0.64945192	0.740309742	-0.173648178
0.567210908	0.805057822	-0.173648178
0.478562381	0.860711542	-0.173648178
0.384507759	0.906642208	-0.173648178
0.286109534	0.942330963	-0.173648178
0.184479265	0.967374649	-0.173648178
0.080765019	0.981490358	-0.173648178
-0.02386159	0.984518631	-0.173648178
-0.128218647	0.97642526	-0.173648178
-0.231127278	0.957301672	-0.173648178
-0.331424972	0.927363897	-0.173648178
-0.427978715	0.886950128	-0.173648178
-0.519697783	0.8365169	-0.173648178
-0.605546069	0.776633934	-0.173648178
-0.684553787	0.7079777	-0.173648178
-0.755828421	0.631323774	-0.173648178
-0.818564818	0.54753808	-0.173648178
-0.872054272	0.457567106	-0.173648178
-0.915692539	0.362427212	-0.173648178
-0.948986658	0.263193147	-0.173648178
-0.971560521	0.160985913	-0.173648178
-0.983159121	0.056960097	-0.173648178
-0.983651435	-0.04770917	-0.173648178
-0.973031901	-0.151839489	-0.173648178
-0.951420482	-0.254254549	-0.173648178
-0.919061314	-0.353797415	-0.173648178
-0.876319942	-0.449343598	-0.173648178
-0.823679196	-0.539813757	-0.173648178
-0.761733733	-0.624185894	-0.173648178
-0.691183322	-0.701506897	-0.173648178
-0.612824937	-0.770903306	-0.173648178
-0.527543758	-0.831591182	-0.173648178
-0.436303165	-0.882884964	-0.173648178
-0.34013386	-0.924205209	-0.173648178
-0.240122222	-0.955085142	-0.173648178
-0.137398037	-0.975175928	-0.173648178
-0.03312173	-0.984250609	-0.173648178
0.071528737	-0.982206674	-0.173648178
0.175371177	-0.969067212	-0.173648178
0.277232532	-0.944980653	-0.173648178
0.375962121	-0.910219091	-0.173648178
0.470444643	-0.865175213	-0.173648178
0.559612772	-0.810357856	-0.173648178
0.64245922	-0.746386268	-0.173648178
0.718048107	-0.673983105	-0.173648178
0.785525543	-0.593966272	-0.173648178
0.844129265	-0.507239681	-0.173648178
0.893197256	-0.414783041	-0.173648178
0.932175218	-0.317640793	-0.173648178
0.960622834	-0.216910306	-0.173648178
0.978218746	-0.113729485	-0.173648178
0.98476418	-0.009263915	-0.173648178
0.970295726	0	-0.241921896
0.964650238	0.104516579	-0.241921896
0.947779467	0.207816936	-0.241921896
0.919879732	0.308699004	-0.241921896
0.881275693	0.405988854	-0.241921896
0.832416571	0.49855436	-0.241921896
0.77387092	0.585318371	-0.241921896
0.706320017	0.665271245	-0.241921896
0.630549925	0.737482602	-0.241921896
0.547442355	0.801112142	-0.241921896
0.457964397	0.855419434	-0.241921896
0.363157275	0.899772521	-0.241921896
0.264124225	0.933655285	-0.241921896
0.162017657	0.956673442	-0.241921896
0.058025749	0.968559141	-0.241921896
-0.046641383	0.96917407	-0.241921896
-0.150765767	0.958511074	-0.241921896
-0.253135745	0.936694236	-0.241921896
-0.352560074	0.903977428	-0.241921896
-0.44788179	0.860741366	-0.241921896
-0.53799167	0.80748917	-0.241921896
-0.621841137	0.744840518	-0.241921896
-0.698454466	0.673524428	-0.241921896
-0.766940135	0.594370781	-0.241921896
-0.826501202	0.508300658	-0.241921896
-0.876444577	0.416315626	-0.241921896
-0.916189085	0.319486081	-0.241921896
-0.945272236	0.218938794	-0.241921896
-0.9633556	0.115843795	-0.241921896
-0.970228746	0.011400765	-0.241921896
-0.965811694	-0.093174932	-0.241921896
-0.950155844	-0.196666387	-0.241921896
-0.923443378	-0.297869306	-0.241921896
-0.885985139	-0.395606029	-0.241921896
-0.838217014	-0.488739229	-0.241921896
-0.780694863	-0.57618515	-0.241921896
-0.714088052	-0.656926214	-0.241921896
-0.639171659	-0.730022867	-0.241921896
-0.556817458	-0.794624512	-0.241921896
-0.467983777	-0.849979401	-0.241921896
-0.373704338	-0.89544339	-0.241921896
-0.275076239	-0.930487431	-0.241921896
-0.173247179	-0.95470373	-0.241921896
-0.069402104	-0.96781049	-0.241921896
0.035250578	-0.969655193	-0.241921896
0.139493062	-0.960216373	-0.241921896
0.242112316	-0.939603865	-0.241921896
0.341914197	-0.90805753	-0.241921896
0.437737348	-0.865944462	-0.241921896
0.528466709	-0.813754714	-0.241921896
0.613046496	-0.752095599	-0.241921896
0.690492485	-0.681684623	-0.241921896
0.759903464	-0.603341132	-0.241921896
0.820471725	-0.51797678	-0.241921896
0.871492456	-0.426584922	-0.241921896
0.912371948	-0.33022905	-0.241921896
0.9426345	-0.230030424	-0.241921896
0.961927959	-0.127155018	-0.241921896
0.970027813	-0.022799955	-0.241921896
0.951056516	0	-0.309016994
0.945297052	0.10450828	-0.309016994
0.928088416	0.207750786	-0.309016994
0.899639035	0.308477072	-0.309016994
0.860293479	0.405467171	-0.309016994
0.810528291	0.497546366	-0.309016994
0.750946213	0.58359942	-0.309016994
0.682268885	0.662584082	-0.309016994
0.60532811	0.733543712	-0.309016994
0.52105577	0.795618867	-0.309016994
0.43047255	0.848057711	-0.309016994
0.334675568	0.890225118	-0.309016994
0.23482509	0.92161037	-0.309016994
0.132130476	0.941833337	-0.309016994
0.027835535	0.950649084	-0.309016994
-0.076796542	0.947950836	-0.309016994
-0.180498481	0.933771276	-0.309016994
-0.282014273	0.908282141	-0.309016994
-0.380114388	0.871792148	-0.309016994
-0.473610664	0.824743255	-0.309016994
-0.561370702	0.767705303	-0.309016994
-0.642331575	0.701369121	-0.309016994
-0.71551271	0.626538154	-0.309016994
-0.780027756	0.544118734	-0.309016994
-0.835095326	0.455109101	-0.309016994
-0.880048457	0.360587314	-0.309016994
-0.914342688	0.261698196	-0.309016994
-0.937562659	0.159639462	-0.309016994
-0.949427135	0.055647221	-0.309016994
-0.949792416	-0.049019004	-0.309016994
-0.93865408	-0.153091525	-0.309016994
-0.91614703	-0.255309844	-0.309016994
-0.882543865	-0.354435922	-0.309016994
-0.838251578	-0.449269173	-0.309016994
-0.783806623	-0.538661001	-0.309016994
-0.719868424	-0.621528719	-0.309016994
-0.647211381	-0.696868657	-0.309016994
-0.566715496	-0.763768318	-0.309016994
-0.479355713	-0.821417432	-0.309016994
-0.386190109	-0.869117769	-0.309016994
-0.288347078	-0.906291597	-0.309016994
-0.187011669	-0.932488677	-0.309016994
-0.083411228	-0.947391716	-0.309016994
0.021199467	-0.950820214	-0.309016994
0.1255534	-0.942732646	-0.309016994
0.228386665	-0.923226965	-0.309016994
0.328453776	-0.892539419	-0.309016994
0.424542747	-0.851041687	-0.309016994
0.515489776	-0.799236378	-0.309016994
0.600193338	-0.737750943	-0.309016994
0.677627527	-0.667330077	-0.309016994
0.746854483	-0.588826697	-0.309016994
0.807035747	-0.503191614	-0.309016994
0.857442422	-0.411462016	-0.309016994
0.897463996	-0.314748905	-0.309016994
0.926615739	-0.214223645	-0.309016994
0.944544573	-0.111103768	-0.309016994
0.951033349	-0.006638234	-0.309016994
0.927183855	0	-0.374606593
0.92127641	0.104497257	-0.374606593
0.903629353	0.20766293	-0.374606593
0.874467556	0.308182402	-0.374606593
0.834162622	0.404774777	-0.374606593
0.783228146	0.496209201	-0.374606593
0.722313175	0.581320546	-0.374606593
0.652193935	0.659024257	-0.374606593
0.573763938	0.728330175	-0.374606593
0.4880226	0.78835515	-0.374606593
0.396062502	0.838334298	-0.374606593
0.299055472	0.877630745	-0.374606593
0.198237647	0.905743747	-0.374606593
0.094893726	0.922315066	-0.374606593
-0.009659404	0.927133537	-0.374606593
-0.114089446	0.920137761	-0.374606593
-0.217065674	0.901416881	-0.374606593
-0.317275883	0.871209455	-0.374606593
-0.413443119	0.829900408	-0.374606593
-0.504341945	0.778016132	-0.374606593
-0.588814059	0.716217777	-0.374606593
-0.665783051	0.645292824	-0.374606593
-0.734268124	0.566145054	-0.374606593
-0.793396588	0.479783029	-0.374606593
-0.842414982	0.387307239	-0.374606593
-0.880698678	0.289896083	-0.374606593
-0.907759834	0.188790848	-0.374606593
-0.923253616	0.085279896	-0.374606593
-0.926982591	-0.019317759	-0.374606593
-0.918899242	-0.123669253	-0.374606593
-0.899106571	-0.226444857	-0.374606593
-0.867856794	-0.326334927	-0.374606593
-0.825548119	-0.422066587	-0.374606593
-0.772719675	-0.51241995	-0.374606593
-0.710044642	-0.596243663	-0.374606593
-0.638321675	-0.672469582	-0.374606593
-0.558464723	-0.740126377	-0.374606593
-0.471491384	-0.798351912	-0.374606593
-0.378509939	-0.846404233	-0.374606593
-0.28070523	-0.883671021	-0.374606593
-0.179323559	-0.909677394	-0.374606593
-0.075656809	-0.924091958	-0.374606593
0.028974018	-0.926731032	-0.374606593
0.133235636	-0.917560987	-0.374606593
0.235799463	-0.896698675	-0.374606593
0.335358552	-0.864409939	-0.374606593
0.430644244	-0.821106226	-0.374606593
0.520442337	-0.767339348	-0.374606593
0.603608553	-0.703794441	-0.374606593
0.679083125	-0.631281244	-0.374606593
0.745904298	-0.550723777	-0.374606593
0.803220585	-0.463148564	-0.374606593
0.850301617	-0.369671556	-0.374606593
0.886547453	-0.271483909	-0.374606593
0.91149622	-0.169836805	-0.374606593
0.924830002	-0.06602551	-0.374606593
0.898794046	0	-0.438371147
0.892700422	0.104482989	-0.438371147
0.874502174	0.207549235	-0.438371147
0.844446064	0.307801205	-0.438371147
0.80293964	0.403879527	-0.438371147
0.750545709	0.494481422	-0.438371147
0.68797471	0.578378367	-0.438371147
0.616075079	0.654432758	-0.438371147
0.535821743	0.72161333	-0.438371147
0.448302901	0.779009144	-0.438371147
0.35470527	0.82584194	-0.438371147
0.256297992	0.861476684	-0.438371147
0.154415427	0.885430186	-0.438371147
0.050439058	0.897377646	-0.438371147
-0.054221243	0.897157062	-0.438371147
-0.158146328	0.884771426	-0.438371147
-0.259927019	0.860388681	-0.438371147
-0.358183214	0.824339446	-0.438371147
-0.451582604	0.777112533	-0.438371147
-0.538858733	0.719348318	-0.438371147
-0.618828177	0.651830059	-0.438371147
-0.690406584	0.575473272	-0.438371147
-0.752623383	0.491313322	-0.438371147
-0.804634943	0.400491381	-0.438371147
-0.845736009	0.304238955	-0.438371147
-0.875369268	0.203861182	-0.438371147
-0.893132908	0.100719143	-0.438371147
-0.898786061	-0.003788604	-0.438371147
-0.892252073	-0.108244979	-0.438371147
-0.873619542	-0.2112336	-0.438371147
-0.843141116	-0.311357987	-0.438371147
-0.80123007	-0.407260497	-0.438371147
-0.748454699	-0.497640735	-0.438371147
-0.685530613	-0.581273185	-0.438371147
-0.613311036	-0.657023828	-0.438371147
-0.532775232	-0.723865519	-0.438371147
-0.445015232	-0.780891914	-0.438371147
-0.351221023	-0.827329759	-0.438371147
-0.252664412	-0.86254938	-0.438371147
-0.150681783	-0.886073213	-0.438371147
-0.046655976	-0.897582285	-0.438371147
0.058002465	-0.896920538	-0.438371147
0.161874419	-0.884096946	-0.438371147
0.263551427	-0.859285391	-0.438371147
0.361654795	-0.822822306	-0.438371147
0.454854283	-0.775202115	-0.438371147
0.541886149	-0.717070526	-0.438371147
0.621570278	-0.649215778	-0.438371147
0.69282619	-0.572557952	-0.438371147
0.754687685	-0.488136493	-0.438371147
0.806315949	-0.39709612	-0.438371147
0.847010926	-0.300671298	-0.438371147
0.876220809	-0.200169508	-0.438371147
0.893549526	-0.096953507	-0.438371147
0.866025404	0	-0.5
0.85970176	0.104464746	-0.5
0.84082318	0.207403907	-0.5
0.809665361	0.307314176	-0.5
0.766683328	0.402736482	-0.5
0.712504784	0.492277293	-0.5
0.647920941	0.574628971	-0.5
0.573874971	0.648588866	-0.5
0.49144823	0.71307688	-0.5
0.401844463	0.767151241	-0.5
0.306372229	0.810022257	-0.5
0.206425786	0.841063847	-0.5
0.103464737	0.859822684	-0.5
-0.001007293	0.866024818	-0.5
-0.105464613	0.859579674	-0.5
-0.208381746	0.840581375	-0.5
-0.308255708	0.80930737	-0.5
-0.403627956	0.766214378	-0.5
-0.49310569	0.711931723	-0.5
-0.575382194	0.647252139	-0.5
-0.649255914	0.573120195	-0.5
-0.713648012	0.490618503	-0.5
-0.767618117	0.400951901	-0.5
-0.810378058	0.305429867	-0.5
-0.841303376	0.205447387	-0.5
-0.859942445	0.102464589	-0.5
-0.866023061	-0.002014585	-0.5
-0.859456424	-0.106464338	-0.5
-0.840338433	-0.209359304	-0.5
-0.808948283	-0.309196822	-0.5
-0.765744391	-0.404518884	-0.5
-0.711357699	-0.49393342	-0.5
-0.646582461	-0.576134638	-0.5
-0.572364644	-0.649922083	-0.5
-0.489788111	-0.714218178	-0.5
-0.400058796	-0.768083953	-0.5
-0.304487092	-0.810732762	-0.5
-0.20446871	-0.841541768	-0.5
-0.101464301	-0.860061042	-0.5
0.003021874	-0.866020132	-0.5
0.107463919	-0.859332012	-0.5
0.210336578	-0.840094354	-0.5
0.310137519	-0.808588102	-0.5
0.405409264	-0.765273369	-0.5
0.494760482	-0.710782713	-0.5
0.576886302	-0.645911909	-0.5
0.650587374	-0.571608318	-0.5
0.714787379	-0.488957057	-0.5
