# .PCD v.5 - Point Cloud Data file format
VERSION .5
FIELDS x y z
SIZE 4 4 4
TYPE F F F
COUNT 1 1 1
WIDTH 1308
HEIGHT 1
POINTS 1308
DATA ascii
0.623057588	0.993179659	0.279596452
0.492973621	1.063759184	0.279596452
0.355034496	1.117388518	0.279596452
0.211438166	1.153213118	0.279596452
0.06447273	1.170662146	0.279596452
-0.08352003	1.169457566	0.279596452
-0.230181961	1.149618571	0.279596452
-0.373176119	1.11146128	0.279596452
-0.510223999	1.055593702	0.279596452
-0.63914185	0.982906043	0.279596452
-0.757875462	0.894556526	0.279596452
-0.864532907	0.791952932	0.279596452
-0.957414679	0.676730173	0.279596452
-1.035040778	0.550724234	0.279596452
-1.096174291	0.415942924	0.279596452
-1.139841104	0.274533881	0.279596452
-1.165345417	0.12875035	0.279596452
-1.17228084	-0.019084719	0.279596452
-1.160536861	-0.166615689	0.279596452
-1.130300612	-0.311491764	0.279596452
-1.082053886	-0.451404455	0.279596452
-1.016565455	-0.584124361	0.279596452
-0.934878829	-0.70753669	0.279596452
-0.838295622	-0.819674962	0.279596452
-0.728354813	-0.918752338	0.279596452
-0.606808226	-1.003190097	0.279596452
-0.475592612	-1.071642786	0.279596452
-0.336798793	-1.123019664	0.279596452
-0.192638342	-1.156502081	0.279596452
-0.045408346	-1.171556518	0.279596452
0.102545198	-1.167943096	0.279596452
0.248864762	-1.145719391	0.279596452
0.391218856	-1.105239522	0.279596452
0.527339176	-1.047148503	0.279596452
0.655056748	-0.972371971	0.279596452
0.77233649	-0.882101434	0.279596452
0.877309639	-0.777775283	0.279596452
0.968303528	-0.661055875	0.279596452
1.043868239	-0.533803047	0.279596452
1.102799706	-0.398044474	0.279596452
1.144158899	-0.255943365	0.279596452
1.167286794	-0.109763995	0.279596452
1.224744871	0	0.25
1.215801889	0.14773546	0.25
1.189103544	0.293313418	0.25
1.145039735	0.434607876	0.25
1.084253961	0.569555395	0.25
1.007633928	0.696185225	0.25
0.916298582	0.812648084	0.25
0.811581768	0.917243171	0.25
0.695012753	1.008442995	0.25
0.56829389	1.08491569	0.25
0.433275761	1.145544462	0.25
0.291930147	1.189443899	0.25
0.146321235	1.215972901	0.25
-0.001424528	1.224744043	0.25
-0.149149486	1.215629232	0.25
-0.294696292	1.188761581	0.25
-0.435939403	1.144533458	0.25
-0.570816129	1.083590765	0.25
-0.697356755	1.006823498	0.25
-0.813713302	0.915352753	0.25
-0.918186519	0.810514353	0.25
-1.009250697	0.69383934	0.25
-1.085575951	0.567031616	0.25
-1.14604764	0.43194306	0.25
-1.189782645	0.290546481	0.25
-1.216142268	0.144906811	0.25
-1.224741558	-0.002849053	0.25
-1.215454931	-0.150563311	0.25
-1.188418009	-0.296078767	0.25
-1.144025633	-0.43727034	0.25
-1.082926104	-0.572076091	0.25
-1.006011706	-0.698527342	0.25
-0.914405686	-0.814777418	0.25
-0.809445842	-0.919128625	0.25
-0.692664989	-1.010057034	0.25
-0.565768576	-1.086234744	0.25
-0.430609775	-1.146549267	0.25
-0.289162422	-1.190119781	0.25
-0.143492191	-1.21630999	0.25
0.004273575	-1.224737415	0.25
0.151976931	-1.215278985	0.25
0.297460842	-1.188072829	0.25
0.438600685	-1.143516261	0.25
0.573335279	-1.082259977	0.25
0.699696983	-1.005198553	0.25
0.815840432	-0.913457382	0.25
0.920069487	-0.808376236	0.25
1.010862005	-0.691489701	0.25
1.086892067	-0.564504769	0.25
1.147049343	-0.429275907	0.25
1.190455307	-0.287777972	0.25
1.216476066	-0.142077377	0.25
1.27108673	0	0.219185573
1.262469043	0.14776126	0.219185573
1.236732835	0.293518943	0.219185573
1.194227077	0.435296639	0.219185573
1.135528128	0.571171905	0.219185573
1.061431921	0.699302333	0.219185573
0.972943166	0.817950531	0.219185573
0.871261733	0.925507681	0.219185573
0.757766376	1.020515357	0.219185573
0.633996042	1.101685297	0.219185573
0.501629003	1.167916871	0.219185573
0.362460097	1.21831201	0.219185573
0.218376392	1.252187377	0.219185573
0.0713316	1.269083637	0.219185573
-0.076680418	1.268771685	0.219185573
-0.223652682	1.25125575	0.219185573
-0.367592315	1.216773342	0.219185573
-0.50654756	1.165792025	0.219185573
-0.638634243	1.099003084	0.219185573
-0.762061329	1.017312148	0.219185573
-0.8751552	0.92182691	0.219185573
-0.976382354	0.813842106	0.219185573
-1.064370196	0.694821964	0.219185573
-1.137925649	0.566380343	0.219185573
-1.196051333	0.430258856	0.219185573
-1.237959091	0.288303249	0.219185573
-1.263080672	0.142438378	0.219185573
-1.271075438	-0.005357895	0.219185573
-1.261834983	-0.153081517	0.219185573
-1.235484604	-0.298729422	0.219185573
-1.192381601	-0.440326688	0.219185573
-1.133110432	-0.575953318	0.219185573
-1.058474786	-0.703770277	0.219185573
-0.969486691	-0.822044422	0.219185573
-0.867352785	-0.929172009	0.219185573
-0.753457959	-1.023700434	0.219185573
-0.629346577	-1.104347935	0.219185573
-0.496701534	-1.170020966	0.219185573
-0.357321438	-1.219829031	0.219185573
-0.213096221	-1.253096754	0.219185573
-0.065981514	-1.26937304	0.219185573
0.082027873	-1.268437189	0.219185573
0.228924999	-1.250301892	0.219185573
0.372718003	-1.215213054	0.219185573
0.511457116	-1.163646464	0.219185573
0.643261096	-1.096301344	0.219185573
0.766342741	-1.014090863	0.219185573
0.879033118	-0.918129759	0.219185573
0.979804194	-0.809719221	0.219185573
1.067289559	-0.690329249	0.219185573
1.14030295	-0.561578718	0.219185573
1.197854338	-0.425213428	0.219185573
1.239163352	-0.283082432	0.219185573
1.263669858	-0.137112964	0.219185573
1.311235982	0	0.187303297
1.302881594	0.147781438	0.187303297
1.277924886	0.293679732	0.187303297
1.236683878	0.435835733	0.187303297
1.179684093	0.57243798	0.187303297
1.107651867	0.701745782	0.187303297
1.021505089	0.8221114	0.187303297
0.922341508	0.932001043	0.187303297
0.811424742	1.030014412	0.187303297
0.690168179	1.114902545	0.187303297
0.560116962	1.185583733	0.187303297
0.422928305	1.241157302	0.187303297
0.28035037	1.280915091	0.187303297
0.134199995	1.304350475	0.187303297
-0.01366046	1.311164823	0.187303297
-0.161346842	1.3012713	0.187303297
-0.306977219	1.274795979	0.187303297
-0.448695857	1.232076227	0.187303297
-0.584696866	1.173656413	0.187303297
-0.713247219	1.100280966	0.187303297
-0.832708828	1.012884894	0.187303297
-0.94155942	0.912581864	0.187303297
-1.038411939	0.800650014	0.187303297
-1.122032215	0.678515667	0.187303297
-1.191354693	0.547735151	0.187303297
-1.245496014	0.409974973	0.187303297
-1.283766268	0.266990578	0.187303297
-1.305677785	0.120603985	0.187303297
-1.310951353	-0.027319437	0.187303297
-1.29951977	-0.174894734	0.187303297
-1.271528707	-0.320241388	0.187303297
-1.227334849	-0.46150728	0.187303297
-1.167501346	-0.596892291	0.187303297
-1.092790644	-0.724671242	0.187303297
-1.004154763	-0.843215875	0.187303297
-0.90272317	-0.951015603	0.187303297
-0.789788385	-1.04669676	0.187303297
-0.66678951	-1.129040101	0.187303297
-0.535293889	-1.196996346	0.187303297
-0.396977143	-1.249699543	0.187303297
-0.253601809	-1.286478108	0.187303297
-0.106994885	-1.30686338	0.187303297
0.04097545	-1.310595595	0.187303297
0.188423643	-1.297627193	0.187303297
0.333470798	-1.268123427	0.187303297
0.474268612	-1.222460259	0.187303297
0.609022931	-1.161219562	0.187303297
0.736016611	-1.085181712	0.187303297
0.853631402	-0.995315643	0.187303297
0.960368565	-0.892766498	0.187303297
1.054867974	-0.778841035	0.187303297
1.135925444	-0.654990981	0.187303297
1.20250808	-0.522794528	0.187303297
1.253767432	-0.383936226	0.187303297
1.289050317	-0.240185513	0.187303297
1.307907131	-0.093374172	0.187303297
1.344997024	0	0.154508497
1.336851911	0.147797027	0.154508497
1.312515225	0.293803979	0.154508497
1.272281724	0.436252459	0.154508497
1.216638706	0.573417173	0.154508497
1.146260102	0.703636819	0.154508497
1.061998319	0.825334214	0.154508497
0.964873911	0.937035394	0.154508497
0.856063222	1.037387466	0.154508497
0.736884137	1.125174992	0.154508497
0.608780119	1.199334716	0.154508497
0.473302727	1.258968436	0.154508497
0.332092827	1.303353885	0.154508497
0.186860711	1.331953479	0.154508497
0.039365391	1.344420827	0.154508497
-0.108606711	1.340604929	0.154508497
-0.2552634	1.320552002	0.154508497
-0.39882841	1.284504922	0.154508497
-0.537562923	1.232900279	0.154508497
-0.669786625	1.166363096	0.154508497
-0.79389806	1.085699252	0.154508497
-0.908394025	0.991885724	0.154508497
-1.011887779	0.886058755	0.154508497
-1.103125832	0.769500093	0.154508497
-1.181003136	0.643621462	0.154508497
-1.244576463	0.50994747	0.154508497
-1.29307583	0.370097137	0.154508497
-1.325913828	0.225764293	0.154508497
-1.34269273	0.078697054	0.154508497
-1.343209317	-0.069323341	0.154508497
-1.327457331	-0.216504111	0.154508497
-1.295627555	-0.361062644	0.154508497
-1.248105504	-0.501248088	0.154508497
-1.18546675	-0.635362557	0.154508497
-1.108469957	-0.761781693	0.154508497
-1.018047689	-0.878974344	0.154508497
-0.915295113	-0.985521106	0.154508497
-0.801456741	-1.080131514	0.154508497
-0.677911351	-1.161659673	0.154508497
-0.546155289	-1.229118137	0.154508497
-0.407784349	-1.281689869	0.154508497
-0.264474439	-1.318738134	0.154508497
-0.11796129	-1.339814214	0.154508497
0.029980574	-1.344662842	0.154508497
0.177559321	-1.333225293	0.154508497
0.32298752	-1.305640095	0.154508497
0.464503785	-1.262241351	0.154508497
0.600394111	-1.203554696	0.154508497
0.729012632	-1.130290926	0.154508497
0.848801558	-1.04333739	0.154508497
0.958310039	-0.943747246	0.154508497
1.056211738	-0.832726701	0.154508497
1.141320899	-0.711620405	0.154508497
1.212606702	-0.581895163	0.154508497
1.269205755	-0.44512217	0.154508497
1.310432545	-0.302957984	0.154508497
1.335787745	-0.157124456	0.154508497
1.344964261	-0.00938788	0.154508497
1.372205376	0	0.120960948
1.364221449	0.147808763	0.120960948
1.340362576	0.293897529	0.120960948
1.300906393	0.436566318	0.120960948
1.246312037	0.574154943	0.120960948
1.177214804	0.705062337	0.120960948
1.094418751	0.827765178	0.120960948
0.998887347	0.940835618	0.120960948
0.891732256	1.042957897	0.120960948
0.774200403	1.132943657	0.120960948
0.647659462	1.209745764	0.120960948
0.513581944	1.272470502	0.120960948
0.373528061	1.320387966	0.120960948
0.229127568	1.352940557	0.120960948
0.082060801	1.369749473	0.120960948
-0.065960877	1.370619114	0.120960948
-0.213214992	1.355539361	0.120960948
-0.357988003	1.324685692	0.120960948
-0.498595238	1.278417139	0.120960948
-0.633400502	1.217272113	0.120960948
-0.760835116	1.141962135	0.120960948
-0.87941617	1.053363562	0.120960948
-0.987763778	0.952507381	0.120960948
-1.084617141	0.84056722	0.120960948
-1.168849209	0.718845685	0.120960948
-1.239479807	0.588759205	0.120960948
-1.29568703	0.451821549	0.120960948
-1.336816817	0.309626211	0.120960948
-1.362390555	0.163827866	0.120960948
-1.372110651	0.016123116	0.120960948
-1.365863996	-0.131769253	0.120960948
-1.343723282	-0.278128271	0.120960948
-1.30594615	-0.421250813	0.120960948
-1.252972199	-0.559471412	0.120960948
-1.185417869	-0.691181647	0.120960948
-1.104069264	-0.814848853	0.120960948
-1.009873008	-0.929033961	0.120960948
-0.903925229	-1.03240824	0.120960948
-0.787458801	-1.123768761	0.120960948
-0.661829004	-1.202052396	0.120960948
-0.528497744	-1.266348186	0.120960948
-0.389016548	-1.315907944	0.120960948
-0.24500851	-1.350154963	0.120960948
-0.098149396	-1.368690721	0.120960948
0.049851846	-1.371299525	0.120960948
0.19727298	-1.357951017	0.120960948
0.342398521	-1.328800529	0.120960948
0.483539695	-1.284187275	0.120960948
0.619054094	-1.224630402	0.120960948
0.747364787	-1.150822952	0.120960948
0.866978669	-1.063623797	0.120960948
0.976503836	-0.964047639	0.120960948
1.074665786	-0.853253211	0.120960948
1.160322241	-0.732529787	0.120960948
1.232476451	-0.603282182	0.120960948
1.290288782	-0.467014402	0.120960948
1.333086494	-0.325312146	0.120960948
1.360371565	-0.179824351	0.120960948
1.371826489	-0.032244006	0.120960948
1.392728481	0	0.086824089
1.384861981	0.147817164	0.086824089
1.361351347	0.293964507	0.086824089
1.322462166	0.436791071	0.086824089
1.268633752	0.574683412	0.086824089
1.200474179	0.706083825	0.086824089
1.118753413	0.82950794	0.086824089
1.024394615	0.943561494	0.086824089
0.918463713	1.046956077	0.086824089
0.802157359	1.13852369	0.086824089
0.676789409	1.217229936	0.086824089
0.543776088	1.282185707	0.086824089
0.404619984	1.332657229	0.086824089
0.260893078	1.368074348	0.086824089
0.114218986	1.388036975	0.086824089
-0.033745385	1.3923196	0.086824089
-0.18132855	1.380873846	0.086824089
-0.326863331	1.353829008	0.086824089
-0.468705691	1.311490601	0.086824089
-0.605253303	1.254336901	0.086824089
-0.734963653	1.183013546	0.086824089
-0.856371464	1.098326243	0.086824089
-0.968105249	1.001231665	0.086824089
-1.068902804	0.892826644	0.086824089
-1.157625467	0.774335779	0.086824089
-1.233270979	0.647097607	0.086824089
-1.294984808	0.512549478	0.086824089
-1.342069803	0.372211318	0.086824089
-1.373994066	0.227668462	0.086824089
-1.390396963	0.080553742	0.086824089
-1.3910932	-0.067470955	0.086824089
-1.376074911	-0.214733465	0.086824089
-1.34551175	-0.359570232	0.086824089
-1.299748975	-0.500345103	0.086824089
-1.239303547	-0.635467811	0.086824089
-1.16485829	-0.763411937	0.086824089
-1.077254176	-0.882732157	0.086824089
-0.977480828	-0.992080568	0.086824089
-0.866665338	-1.09022191	0.086824089
-0.746059537	-1.176047528	0.086824089
-0.617025853	-1.24858789	0.086824089
-0.481021917	-1.307023541	0.086824089
-0.339584103	-1.350694361	0.086824089
-0.194310167	-1.379107023	0.086824089
-0.0468412	-1.39194056	0.086824089
0.101156909	-1.389049999	0.086824089
0.248012297	-1.370467994	0.086824089
0.392066007	-1.336404455	0.086824089
0.53169073	-1.287244183	0.086824089
0.665309194	-1.22354252	0.086824089
0.791411973	-1.146019071	0.086824089
0.908574542	-1.055549583	0.086824089
1.015473372	-0.953156048	0.086824089
1.110900876	-0.839995157	0.086824089
1.193779055	-0.717345236	0.086824089
1.263171674	-0.586591803	0.086824089
1.318294836	-0.449211917	0.086824089
1.35852584	-0.306757496	0.086824089
1.383410217	-0.16083778	0.086824089
1.392666859	-0.013101155	0.086824089
1.406466353	0	0.052264232
1.398676547	0.147822584	0.052264232
1.375393421	0.294007717	0.052264232
1.336874884	0.436936089	0.052264232
1.28354761	0.575024464	0.052264232
1.216002313	0.706743218	0.052264232
1.134987201	0.830633285	0.052264232
1.041399688	0.945322321	0.052264232
0.936276457	1.049539898	0.052264232
0.820781969	1.142131586	0.052264232
0.696195574	1.222071734	0.052264232
0.56389733	1.288474836	0.052264232
0.425352722	1.340605334	0.052264232
0.282096427	1.377885774	0.052264232
0.135715313	1.399903195	0.052264232
-0.012169137	1.406413706	0.052264232
-0.159918788	1.397345191	0.052264232
-0.305896997	1.372798102	0.052264232
-0.448486746	1.33304435	0.052264232
-0.58610855	1.278524293	0.052264232
-0.717237952	1.209841858	0.052264232
-0.840422417	1.127757847	0.052264232
-0.954297415	1.033181516	0.052264232
-1.057601536	0.9271605	0.052264232
-1.149190467	0.810869207	0.052264232
-1.228049667	0.68559581	0.052264232
-1.293305602	0.55272798	0.052264232
-1.344235423	0.413737511	0.052264232
-1.380274974	0.270164017	0.052264232
-1.401025041	0.123597882	0.052264232
-1.406255771	-0.024337363	0.052264232
-1.395909224	-0.17200302	0.052264232
-1.37010001	-0.317763377	0.052264232
-1.32911402	-0.460003828	0.052264232
-1.273405262	-0.597148757	0.052264232
-1.20359083	-0.727678992	0.052264232
-1.120444065	-0.850148633	0.052264232
-1.024885997	-0.963201067	0.052264232
-0.917975133	-1.065583998	0.052264232
-0.80089574	-1.156163316	0.052264232
-0.674944721	-1.233935664	0.052264232
-0.541517252	-1.298039547	0.052264232
-0.402091326	-1.347764878	0.052264232
-0.258211383	-1.382560842	0.052264232
-0.111471198	-1.402042001	0.052264232
0.036503767	-1.405992559	0.052264232
0.184074375	-1.394368755	0.052264232
0.329605968	-1.367299348	0.052264232
0.471486473	-1.325084189	0.052264232
0.608144261	-1.2681909	0.052264232
0.738065556	-1.197249697	0.052264232
0.859811203	-1.113046403	0.052264232
0.97203261	-1.016513751	0.052264232
1.073486686	-0.908721043	0.052264232
1.163049611	-0.790862316	0.052264232
1.239729285	-0.664243103	0.052264232
1.302676317	-0.530265984	0.052264232
1.351193434	-0.39041504	0.052264232
1.384743207	-0.246239418	0.052264232
1.402954	-0.09933617	0.052264232
1.413352062	0	0.017449748
1.405600138	0.147825241	0.017449748
1.382429403	0.294028904	0.017449748
1.344094028	0.4370072	0.017449748
1.291014537	0.57519172	0.017449748
1.223773187	0.707066642	0.017449748
1.143107587	0.831185356	0.017449748
1.049902602	0.946186333	0.017449748
0.945180649	1.050808065	0.017449748
0.830090484	1.143902898	0.017449748
0.705894592	1.224449621	0.017449748
0.573955349	1.291564674	0.017449748
0.43572007	1.344511834	0.017449748
0.292705135	1.382710293	0.017449748
0.146479353	1.405741032	0.017449748
-0.001353242	1.413351414	0.017449748
-0.149170993	1.405457956	0.017449748
-0.295352404	1.382147245	0.017449748
-0.438293929	1.343674991	0.017449748
-0.576427564	1.290463217	0.017449748
-0.708238044	1.223095631	0.017449748
-0.832279466	1.142311228	0.017449748
-0.94719115	1.048996176	0.017449748
-1.051712566	0.944174099	0.017449748
-1.14469716	0.828994851	0.017449748
-1.225124933	0.704721895	0.017449748
-1.292113627	0.572718452	0.017449748
-1.344928406	0.434432541	0.017449748
-1.382989916	0.291381097	0.017449748
-1.405880637	0.145133332	0.017449748
-1.41334947	-0.002706483	0.017449748
-1.405314485	-0.150516608	0.017449748
-1.381863821	-0.296675632	0.017449748
-1.343254722	-0.439580256	0.017449748
-1.289910713	-0.57766288	0.017449748
-1.222416954	-0.709408796	0.017449748
-1.141513822	-0.833372813	0.017449748
-1.048088788	-0.948195098	0.017449748
-0.943166683	-1.052616102	0.017449748
-0.827898458	-1.145490373	0.017449748
-0.703548552	-1.225799121	0.017449748
-0.57148103	-1.292661395	0.017449748
-0.433144614	-1.345343746	0.017449748
-0.290056793	-1.38326827	0.017449748
-0.143787177	-1.406018954	0.017449748
0.004059721	-1.413346231	0.017449748
0.151862085	-1.405169725	0.017449748
0.297998589	-1.381579129	0.017449748
0.440866181	-1.342833222	0.017449748
0.578897665	-1.289357027	0.017449748
0.710578899	-1.221737156	0.017449748
0.834465396	-1.140715369	0.017449748
0.949198176	-1.047180439	0.017449748
1.053518673	-0.942158403	0.017449748
1.146282535	-0.826801306	0.017449748
1.226472186	-0.702374564	0.017449748
1.293207979	-0.570243084	0.017449748
1.345757852	-0.431856289	0.017449748
1.383545357	-0.288732222	0.017449748
1.406155981	-0.14244089	0.017449748
1.413352062	0	-0.017449748
1.405600138	0.147825241	-0.017449748
1.382429403	0.294028904	-0.017449748
1.344094028	0.4370072	-0.017449748
1.291014537	0.57519172	-0.017449748
1.223773187	0.707066642	-0.017449748
1.143107587	0.831185356	-0.017449748
1.049902602	0.946186333	-0.017449748
0.945180649	1.050808065	-0.017449748
0.830090484	1.143902898	-0.017449748
0.705894592	1.224449621	-0.017449748
0.573955349	1.291564674	-0.017449748
0.43572007	1.344511834	-0.017449748
0.292705135	1.382710293	-0.017449748
0.146479353	1.405741032	-0.017449748
-0.001353242	1.413351414	-0.017449748
-0.149170993	1.405457956	-0.017449748
-0.295352404	1.382147245	-0.017449748
-0.438293929	1.343674991	-0.017449748
-0.576427564	1.290463217	-0.017449748
-0.708238044	1.223095631	-0.017449748
-0.832279466	1.142311228	-0.017449748
-0.94719115	1.048996176	-0.017449748
-1.051712566	0.944174099	-0.017449748
-1.14469716	0.828994851	-0.017449748
-1.225124933	0.704721895	-0.017449748
-1.292113627	0.572718452	-0.017449748
-1.344928406	0.434432541	-0.017449748
-1.382989916	0.291381097	-0.017449748
-1.405880637	0.145133332	-0.017449748
-1.41334947	-0.002706483	-0.017449748
-1.405314485	-0.150516608	-0.017449748
-1.381863821	-0.296675632	-0.017449748
-1.343254722	-0.439580256	-0.017449748
-1.289910713	-0.57766288	-0.017449748
-1.222416954	-0.709408796	-0.017449748
-1.141513822	-0.833372813	-0.017449748
-1.048088788	-0.948195098	-0.017449748
-0.943166683	-1.052616102	-0.017449748
-0.827898458	-1.145490373	-0.017449748
-0.703548552	-1.225799121	-0.017449748
-0.57148103	-1.292661395	-0.017449748
-0.433144614	-1.345343746	-0.017449748
-0.290056793	-1.38326827	-0.017449748
-0.143787177	-1.406018954	-0.017449748
0.004059721	-1.413346231	-0.017449748
0.151862085	-1.405169725	-0.017449748
0.297998589	-1.381579129	-0.017449748
0.440866181	-1.342833222	-0.017449748
0.578897665	-1.289357027	-0.017449748
0.710578899	-1.221737156	-0.017449748
0.834465396	-1.140715369	-0.017449748
0.949198176	-1.047180439	-0.017449748
1.053518673	-0.942158403	-0.017449748
1.146282535	-0.826801306	-0.017449748
1.226472186	-0.702374564	-0.017449748
1.293207979	-0.570243084	-0.017449748
1.345757852	-0.431856289	-0.017449748
1.383545357	-0.288732222	-0.017449748
1.406155981	-0.14244089	-0.017449748
1.406466353	0	-0.052264232
1.398676547	0.147822584	-0.052264232
1.375393421	0.294007717	-0.052264232
1.336874884	0.436936089	-0.052264232
1.28354761	0.575024464	-0.052264232
1.216002313	0.706743218	-0.052264232
1.134987201	0.830633285	-0.052264232
1.041399688	0.945322321	-0.052264232
0.936276457	1.049539898	-0.052264232
0.820781969	1.142131586	-0.052264232
0.696195574	1.222071734	-0.052264232
0.56389733	1.288474836	-0.052264232
0.425352722	1.340605334	-0.052264232
0.282096427	1.377885774	-0.052264232
0.135715313	1.399903195	-0.052264232
-0.012169137	1.406413706	-0.052264232
-0.159918788	1.397345191	-0.052264232
-0.305896997	1.372798102	-0.052264232
-0.448486746	1.33304435	-0.052264232
-0.58610855	1.278524293	-0.052264232
-0.717237952	1.209841858	-0.052264232
-0.840422417	1.127757847	-0.052264232
-0.954297415	1.033181516	-0.052264232
-1.057601536	0.9271605	-0.052264232
-1.149190467	0.810869207	-0.052264232
-1.228049667	0.68559581	-0.052264232
-1.293305602	0.55272798	-0.052264232
-1.344235423	0.413737511	-0.052264232
-1.380274974	0.270164017	-0.052264232
-1.401025041	0.123597882	-0.052264232
-1.406255771	-0.024337363	-0.052264232
-1.395909224	-0.17200302	-0.052264232
-1.37010001	-0.317763377	-0.052264232
-1.32911402	-0.460003828	-0.052264232
-1.273405262	-0.597148757	-0.052264232
-1.20359083	-0.727678992	-0.052264232
-1.120444065	-0.850148633	-0.052264232
-1.024885997	-0.963201067	-0.052264232
-0.917975133	-1.065583998	-0.052264232
-0.80089574	-1.156163316	-0.052264232
-0.674944721	-1.233935664	-0.052264232
-0.541517252	-1.298039547	-0.052264232
-0.402091326	-1.347764878	-0.052264232
-0.258211383	-1.382560842	-0.052264232
-0.111471198	-1.402042001	-0.052264232
0.036503767	-1.405992559	-0.052264232
0.184074375	-1.394368755	-0.052264232
0.329605968	-1.367299348	-0.052264232
0.471486473	-1.325084189	-0.052264232
0.608144261	-1.2681909	-0.052264232
0.738065556	-1.197249697	-0.052264232
0.859811203	-1.113046403	-0.052264232
0.97203261	-1.016513751	-0.052264232
1.073486686	-0.908721043	-0.052264232
1.163049611	-0.790862316	-0.052264232
1.239729285	-0.664243103	-0.052264232
1.302676317	-0.530265984	-0.052264232
1.351193434	-0.39041504	-0.052264232
1.384743207	-0.246239418	-0.052264232
1.402954	-0.09933617	-0.052264232
1.392728481	0	-0.086824089
1.384861981	0.147817164	-0.086824089
1.361351347	0.293964507	-0.086824089
1.322462166	0.436791071	-0.086824089
1.268633752	0.574683412	-0.086824089
1.200474179	0.706083825	-0.086824089
1.118753413	0.82950794	-0.086824089
1.024394615	0.943561494	-0.086824089
0.918463713	1.046956077	-0.086824089
0.802157359	1.13852369	-0.086824089
0.676789409	1.217229936	-0.086824089
0.543776088	1.282185707	-0.086824089
0.404619984	1.332657229	-0.086824089
0.260893078	1.368074348	-0.086824089
0.114218986	1.388036975	-0.086824089
-0.033745385	1.3923196	-0.086824089
-0.18132855	1.380873846	-0.086824089
-0.326863331	1.353829008	-0.086824089
-0.468705691	1.311490601	-0.086824089
-0.605253303	1.254336901	-0.086824089
-0.734963653	1.183013546	-0.086824089
-0.856371464	1.098326243	-0.086824089
-0.968105249	1.001231665	-0.086824089
-1.068902804	0.892826644	-0.086824089
-1.157625467	0.774335779	-0.086824089
-1.233270979	0.647097607	-0.086824089
-1.294984808	0.512549478	-0.086824089
-1.342069803	0.372211318	-0.086824089
-1.373994066	0.227668462	-0.086824089
-1.390396963	0.080553742	-0.086824089
-1.3910932	-0.067470955	-0.086824089
-1.376074911	-0.214733465	-0.086824089
-1.34551175	-0.359570232	-0.086824089
-1.299748975	-0.500345103	-0.086824089
-1.239303547	-0.635467811	-0.086824089
-1.16485829	-0.763411937	-0.086824089
-1.077254176	-0.882732157	-0.086824089
-0.977480828	-0.992080568	-0.086824089
-0.866665338	-1.09022191	-0.086824089
-0.746059537	-1.176047528	-0.086824089
-0.617025853	-1.24858789	-0.086824089
-0.481021917	-1.307023541	-0.086824089
-0.339584103	-1.350694361	-0.086824089
-0.194310167	-1.379107023	-0.086824089
-0.0468412	-1.39194056	-0.086824089
0.101156909	-1.389049999	-0.086824089
0.248012297	-1.370467994	-0.086824089
0.392066007	-1.336404455	-0.086824089
0.53169073	-1.287244183	-0.086824089
0.665309194	-1.22354252	-0.086824089
0.791411973	-1.146019071	-0.086824089
0.908574542	-1.055549583	-0.086824089
1.015473372	-0.953156048	-0.086824089
1.110900876	-0.839995157	-0.086824089
1.193779055	-0.717345236	-0.086824089
1.263171674	-0.586591803	-0.086824089
1.318294836	-0.449211917	-0.086824089
1.35852584	-0.306757496	-0.086824089
1.383410217	-0.16083778	-0.086824089
1.392666859	-0.013101155	-0.086824089
1.372205376	0	-0.120960948
1.364221449	0.147808763	-0.120960948
1.340362576	0.293897529	-0.120960948
1.300906393	0.436566318	-0.120960948
1.246312037	0.574154943	-0.120960948
1.177214804	0.705062337	-0.120960948
1.094418751	0.827765178	-0.120960948
0.998887347	0.940835618	-0.120960948
0.891732256	1.042957897	-0.120960948
0.774200403	1.132943657	-0.120960948
0.647659462	1.209745764	-0.120960948
0.513581944	1.272470502	-0.120960948
0.373528061	1.320387966	-0.120960948
0.229127568	1.352940557	-0.120960948
0.082060801	1.369749473	-0.120960948
-0.065960877	1.370619114	-0.120960948
-0.213214992	1.355539361	-0.120960948
-0.357988003	1.324685692	-0.120960948
-0.498595238	1.278417139	-0.120960948
-0.633400502	1.217272113	-0.120960948
-0.760835116	1.141962135	-0.120960948
-0.87941617	1.053363562	-0.120960948
-0.987763778	0.952507381	-0.120960948
-1.084617141	0.84056722	-0.120960948
-1.168849209	0.718845685	-0.120960948
-1.239479807	0.588759205	-0.120960948
-1.29568703	0.451821549	-0.120960948
-1.336816817	0.309626211	-0.120960948
-1.362390555	0.163827866	-0.120960948
-1.372110651	0.016123116	-0.120960948
-1.365863996	-0.131769253	-0.120960948
-1.343723282	-0.278128271	-0.120960948
-1.30594615	-0.421250813	-0.120960948
-1.252972199	-0.559471412	-0.120960948
-1.185417869	-0.691181647	-0.120960948
-1.104069264	-0.814848853	-0.120960948
-1.009873008	-0.929033961	-0.120960948
-0.903925229	-1.03240824	-0.120960948
-0.787458801	-1.123768761	-0.120960948
-0.661829004	-1.202052396	-0.120960948
-0.528497744	-1.266348186	-0.120960948
-0.389016548	-1.315907944	-0.120960948
-0.24500851	-1.350154963	-0.120960948
-0.098149396	-1.368690721	-0.120960948
0.049851846	-1.371299525	-0.120960948
0.19727298	-1.357951017	-0.120960948
0.342398521	-1.328800529	-0.120960948
0.483539695	-1.284187275	-0.120960948
0.619054094	-1.224630402	-0.120960948
0.747364787	-1.150822952	-0.120960948
0.866978669	-1.063623797	-0.120960948
0.976503836	-0.964047639	-0.120960948
1.074665786	-0.853253211	-0.120960948
1.160322241	-0.732529787	-0.120960948
1.232476451	-0.603282182	-0.120960948
1.290288782	-0.467014402	-0.120960948
1.333086494	-0.325312146	-0.120960948
1.360371565	-0.179824351	-0.120960948
1.371826489	-0.032244006	-0.120960948
1.344997024	0	-0.154508497
1.336851911	0.147797027	-0.154508497
1.312515225	0.293803979	-0.154508497
1.272281724	0.436252459	-0.154508497
1.216638706	0.573417173	-0.154508497
1.146260102	0.703636819	-0.154508497
1.061998319	0.825334214	-0.154508497
0.964873911	0.937035394	-0.154508497
0.856063222	1.037387466	-0.154508497
0.736884137	1.125174992	-0.154508497
0.608780119	1.199334716	-0.154508497
0.473302727	1.258968436	-0.154508497
0.332092827	1.303353885	-0.154508497
0.186860711	1.331953479	-0.154508497
0.039365391	1.344420827	-0.154508497
-0.108606711	1.340604929	-0.154508497
-0.2552634	1.320552002	-0.154508497
-0.39882841	1.284504922	-0.154508497
-0.537562923	1.232900279	-0.154508497
-0.669786625	1.166363096	-0.154508497
-0.79389806	1.085699252	-0.154508497
-0.908394025	0.991885724	-0.154508497
-1.011887779	0.886058755	-0.154508497
-1.103125832	0.769500093	-0.154508497
-1.181003136	0.643621462	-0.154508497
-1.244576463	0.50994747	-0.154508497
-1.29307583	0.370097137	-0.154508497
-1.325913828	0.225764293	-0.154508497
-1.34269273	0.078697054	-0.154508497
-1.343209317	-0.069323341	-0.154508497
-1.327457331	-0.216504111	-0.154508497
-1.295627555	-0.361062644	-0.154508497
-1.248105504	-0.501248088	-0.154508497
-1.18546675	-0.635362557	-0.154508497
-1.108469957	-0.761781693	-0.154508497
-1.018047689	-0.878974344	-0.154508497
-0.915295113	-0.985521106	-0.154508497
-0.801456741	-1.080131514	-0.154508497
-0.677911351	-1.161659673	-0.154508497
-0.546155289	-1.229118137	-0.154508497
-0.407784349	-1.281689869	-0.154508497
-0.264474439	-1.318738134	-0.154508497
-0.11796129	-1.339814214	-0.154508497
0.029980574	-1.344662842	-0.154508497
0.177559321	-1.333225293	-0.154508497
0.32298752	-1.305640095	-0.154508497
0.464503785	-1.262241351	-0.154508497
0.600394111	-1.203554696	-0.154508497
0.729012632	-1.130290926	-0.154508497
0.848801558	-1.04333739	-0.154508497
0.958310039	-0.943747246	-0.154508497
1.056211738	-0.832726701	-0.154508497
1.141320899	-0.711620405	-0.154508497
1.212606702	-0.581895163	-0.154508497
1.269205755	-0.44512217	-0.154508497
1.310432545	-0.302957984	-0.154508497
1.335787745	-0.157124456	-0.154508497
1.344964261	-0.00938788	-0.154508497
1.311235982	0	-0.187303297
1.302881594	0.147781438	-0.187303297
1.277924886	0.293679732	-0.187303297
1.236683878	0.435835733	-0.187303297
1.179684093	0.57243798	-0.187303297
1.107651867	0.701745782	-0.187303297
1.021505089	0.8221114	-0.187303297
0.922341508	0.932001043	-0.187303297
0.811424742	1.030014412	-0.187303297
0.690168179	1.114902545	-0.187303297
0.560116962	1.185583733	-0.187303297
0.422928305	1.241157302	-0.187303297
0.28035037	1.280915091	-0.187303297
0.134199995	1.304350475	-0.187303297
-0.01366046	1.311164823	-0.187303297
-0.161346842	1.3012713	-0.187303297
-0.306977219	1.274795979	-0.187303297
-0.448695857	1.232076227	-0.187303297
-0.584696866	1.173656413	-0.187303297
-0.713247219	1.100280966	-0.187303297
-0.832708828	1.012884894	-0.187303297
-0.94155942	0.912581864	-0.187303297
-1.038411939	0.800650014	-0.187303297
-1.122032215	0.678515667	-0.187303297
-1.191354693	0.547735151	-0.187303297
-1.245496014	0.409974973	-0.187303297
-1.283766268	0.266990578	-0.187303297
-1.305677785	0.120603985	-0.187303297
-1.310951353	-0.027319437	-0.187303297
-1.29951977	-0.174894734	-0.187303297
-1.271528707	-0.320241388	-0.187303297
-1.227334849	-0.46150728	-0.187303297
-1.167501346	-0.596892291	-0.187303297
-1.092790644	-0.724671242	-0.187303297
-1.004154763	-0.843215875	-0.187303297
-0.90272317	-0.951015603	-0.187303297
-0.789788385	-1.04669676	-0.187303297
-0.66678951	-1.129040101	-0.187303297
-0.535293889	-1.196996346	-0.187303297
-0.396977143	-1.249699543	-0.187303297
-0.253601809	-1.286478108	-0.187303297
-0.106994885	-1.30686338	-0.187303297
0.04097545	-1.310595595	-0.187303297
0.188423643	-1.297627193	-0.187303297
0.333470798	-1.268123427	-0.187303297
0.474268612	-1.222460259	-0.187303297
0.609022931	-1.161219562	-0.187303297
0.736016611	-1.085181712	-0.187303297
0.853631402	-0.995315643	-0.187303297
0.960368565	-0.892766498	-0.187303297
1.054867974	-0.778841035	-0.187303297
1.135925444	-0.654990981	-0.187303297
1.20250808	-0.522794528	-0.187303297
1.253767432	-0.383936226	-0.187303297
1.289050317	-0.240185513	-0.187303297
1.307907131	-0.093374172	-0.187303297
1.27108673	0	-0.219185573
1.262469043	0.14776126	-0.219185573
1.236732835	0.293518943	-0.219185573
1.194227077	0.435296639	-0.219185573
1.135528128	0.571171905	-0.219185573
1.061431921	0.699302333	-0.219185573
0.972943166	0.817950531	-0.219185573
0.871261733	0.925507681	-0.219185573
0.757766376	1.020515357	-0.219185573
0.633996042	1.101685297	-0.219185573
0.501629003	1.167916871	-0.219185573
0.362460097	1.21831201	-0.219185573
0.218376392	1.252187377	-0.219185573
0.0713316	1.269083637	-0.219185573
-0.076680418	1.268771685	-0.219185573
-0.223652682	1.25125575	-0.219185573
-0.367592315	1.216773342	-0.219185573
-0.50654756	1.165792025	-0.219185573
-0.638634243	1.099003084	-0.219185573
-0.762061329	1.017312148	-0.219185573
-0.8751552	0.92182691	-0.219185573
-0.976382354	0.813842106	-0.219185573
-1.064370196	0.694821964	-0.219185573
-1.137925649	0.566380343	-0.219185573
-1.196051333	0.430258856	-0.219185573
-1.237959091	0.288303249	-0.219185573
-1.263080672	0.142438378	-0.219185573
-1.271075438	-0.005357895	-0.219185573
-1.261834983	-0.153081517	-0.219185573
-1.235484604	-0.298729422	-0.219185573
-1.192381601	-0.440326688	-0.219185573
-1.133110432	-0.575953318	-0.219185573
-1.058474786	-0.703770277	-0.219185573
-0.969486691	-0.822044422	-0.219185573
-0.867352785	-0.929172009	-0.219185573
-0.753457959	-1.023700434	-0.219185573
-0.629346577	-1.104347935	-0.219185573
-0.496701534	-1.170020966	-0.219185573
-0.357321438	-1.219829031	-0.219185573
-0.213096221	-1.253096754	-0.219185573
-0.065981514	-1.26937304	-0.219185573
0.082027873	-1.268437189	-0.219185573
0.228924999	-1.250301892	-0.219185573
0.372718003	-1.215213054	-0.219185573
0.511457116	-1.163646464	-0.219185573
0.643261096	-1.096301344	-0.219185573
0.766342741	-1.014090863	-0.219185573
0.879033118	-0.918129759	-0.219185573
0.979804194	-0.809719221	-0.219185573
1.067289559	-0.690329249	-0.219185573
1.14030295	-0.561578718	-0.219185573
1.197854338	-0.425213428	-0.219185573
1.239163352	-0.283082432	-0.219185573
1.263669858	-0.137112964	-0.219185573
1.224744871	0	-0.25
1.215801889	0.14773546	-0.25
1.189103544	0.293313418	-0.25
1.145039735	0.434607876	-0.25
1.084253961	0.569555395	-0.25
1.007633928	0.696185225	-0.25
0.916298582	0.812648084	-0.25
0.811581768	0.917243171	-0.25
0.695012753	1.008442995	-0.25
0.56829389	1.08491569	-0.25
0.433275761	1.145544462	-0.25
0.291930147	1.189443899	-0.25
0.146321235	1.215972901	-0.25
-0.001424528	1.224744043	-0.25
-0.149149486	1.215629232	-0.25
-0.294696292	1.188761581	-0.25
-0.435939403	1.144533458	-0.25
-0.570816129	1.083590765	-0.25
-0.697356755	1.006823498	-0.25
-0.813713302	0.915352753	-0.25
-0.918186519	0.810514353	-0.25
-1.009250697	0.69383934	-0.25
-1.085575951	0.567031616	-0.25
-1.14604764	0.43194306	-0.25
-1.189782645	0.290546481	-0.25
-1.216142268	0.144906811	-0.25
-1.224741558	-0.002849053	-0.25
-1.215454931	-0.150563311	-0.25
-1.188418009	-0.296078767	-0.25
-1.144025633	-0.43727034	-0.25
-1.082926104	-0.572076091	-0.25
-1.006011706	-0.698527342	-0.25
-0.914405686	-0.814777418	-0.25
-0.809445842	-0.919128625	-0.25
-0.692664989	-1.010057034	-0.25
-0.565768576	-1.086234744	-0.25
-0.430609775	-1.146549267	-0.25
-0.289162422	-1.190119781	-0.25
-0.143492191	-1.21630999	-0.25
0.004273575	-1.224737415	-0.25
0.151976931	-1.215278985	-0.25
0.297460842	-1.188072829	-0.25
0.438600685	-1.143516261	-0.25
0.573335279	-1.082259977	-0.25
0.699696983	-1.005198553	-0.25
0.815840432	-0.913457382	-0.25
0.920069487	-0.808376236	-0.25
1.010862005	-0.691489701	-0.25
1.086892067	-0.564504769	-0.25
1.147049343	-0.429275907	-0.25
1.190455307	-0.287777972	-0.25
1.216476066	-0.142077377	-0.25
1.172436179	0	-0.279596452
1.163095241	0.147702589	-0.279596452
1.135221267	0.29305165	-0.279596452
1.089258407	0.433731156	-0.279596452
1.025939046	0.567499487	-0.279596452
0.946272128	0.692225146	-0.279596452
0.851527085	0.805920726	-0.279596452
0.743213608	0.906774573	-0.279596452
0.623057588	0.993179659	-0.279596452
0.492973621	1.063759184	-0.279596452
0.355034496	1.117388518	-0.279596452
0.211438166	1.153213118	-0.279596452
0.06447273	1.170662146	-0.279596452
-0.08352003	1.169457566	-0.279596452
-0.230181961	1.149618571	-0.279596452
-0.373176119	1.11146128	-0.279596452
-0.510223999	1.055593702	-0.279596452
-0.63914185	0.982906043	-0.279596452
-0.757875462	0.894556526	-0.279596452
-0.864532907	0.791952932	-0.279596452
-0.957414679	0.676730173	-0.279596452
-1.035040778	0.550724234	-0.279596452
-1.096174291	0.415942924	-0.279596452
-1.139841104	0.274533881	-0.279596452
-1.165345417	0.12875035	-0.279596452
-1.17228084	-0.019084719	-0.279596452
-1.160536861	-0.166615689	-0.279596452
-1.130300612	-0.311491764	-0.279596452
-1.082053886	-0.451404455	-0.279596452
-1.016565455	-0.584124361	-0.279596452
-0.934878829	-0.70753669	-0.279596452
-0.838295622	-0.819674962	-0.279596452
-0.728354813	-0.918752338	-0.279596452
-0.606808226	-1.003190097	-0.279596452
-0.475592612	-1.071642786	-0.279596452
-0.336798793	-1.123019664	-0.279596452
-0.192638342	-1.156502081	-0.279596452
-0.045408346	-1.171556518	-0.279596452
0.102545198	-1.167943096	-0.279596452
0.248864762	-1.145719391	-0.279596452
0.391218856	-1.105239522	-0.279596452
0.527339176	-1.047148503	-0.279596452
0.655056748	-0.972371971	-0.279596452
0.77233649	-0.882101434	-0.279596452
0.877309639	-0.777775283	-0.279596452
0.968303528	-0.661055875	-0.279596452
1.043868239	-0.533803047	-0.279596452
1.102799706	-0.398044474	-0.279596452
1.144158899	-0.255943365	-0.279596452
1.167286794	-0.109763995	-0.279596452
1.114415495	0	-0.307830738
1.104589629	0.147660584	-0.307830738
1.075285299	0.292717304	-0.307830738
1.027019264	0.432612214	-0.307830738
0.96064265	0.564878388	-0.307830738
0.877325952	0.687183432	-0.307830738
0.778538386	0.797370602	-0.307830738
0.666021983	0.893496846	-0.307830738
0.54176087	0.973867062	-0.307830738
0.407946283	1.037063993	-0.307830738
0.266937923	1.081973216	-0.307830738
0.121222349	1.107802797	-0.307830738
-0.026630874	1.114097254	-0.307830738
-0.174014485	1.10074559	-0.307830738
-0.318329505	1.06798325	-0.307830738
-0.457031064	1.016387968	-0.307830738
-0.587673285	0.946869582	-0.307830738
-0.707952406	0.860653987	-0.307830738
-0.815747412	0.75926152	-0.307830738
-0.909157433	0.644480146	-0.307830738
-0.986535265	0.518333933	-0.307830738
-1.046516419	0.38304736	-0.307830738
-1.088043181	0.241006085	-0.307830738
-1.110383261	0.09471488	-0.307830738
-1.113142714	-0.053246538	-0.307830738
-1.096272878	-0.200269	-0.307830738
-1.060071238	-0.343759896	-0.307830738
-1.005176178	-0.481188889	-0.307830738
-0.932555724	-0.610132541	-0.307830738
-0.843490473	-0.728317045	-0.307830738
-0.739551013	-0.83365832	-0.307830738
-0.622570224	-0.924298768	-0.307830738
-0.494610958	-0.998640023	-0.307830738
-0.357929666	-1.055371143	-0.307830738
-0.214936599	-1.093491726	-0.307830738
-0.068153316	-1.112329547	-0.307830738
0.079831791	-1.111552419	-0.307830738
0.226409135	-1.091174046	-0.307830738
0.368993953	-1.051553783	-0.307830738
0.50507189	-0.993390297	-0.307830738
0.632243329	-0.917709251	-0.307830738
0.748265716	-0.825845212	-0.307830738
0.851093097	-0.719418123	-0.307830738
0.938912204	-0.60030473	-0.307830738
1.010174423	-0.470605494	-0.307830738
1.063623108	-0.332607545	-0.307830738
1.09831574	-0.188744356	-0.307830738
1.113640543	-0.041552827	-0.307830738
1.050965491	0	-0.334565303
1.040548315	0.147606464	-0.334565303
1.009503296	0.292286776	-0.334565303
0.958445871	0.431172791	-0.334565303
0.888388204	0.561511231	-0.334565303
0.800719118	0.680718266	-0.334565303
0.697176566	0.786430734	-0.334565303
0.579813178	0.876552989	-0.334565303
0.450955566	0.949298447	-0.334565303
0.313158206	1.003225	-0.334565303
0.169152793	1.03726361	-0.334565303
0.021794093	1.050739492	-0.334565303
-0.125996653	1.043385502	-0.334565303
-0.27128964	1.015347426	-0.334565303
-0.411204577	0.967181089	-0.334565303
-0.542967791	0.899841342	-0.334565303
-0.663967204	0.81466313	-0.334565303
-0.771804123	0.713335026	-0.334565303
-0.864340787	0.59786576	-0.334565303
-0.93974275	0.470544395	-0.334565303
-0.99651524	0.333894953	-0.334565303
-1.0335328	0.190626373	-0.334565303
-1.050061594	0.043578813	-0.334565303
-1.045773953	-0.104332653	-0.334565303
-1.020754877	-0.250175828	-0.334565303
-0.975500343	-0.391059514	-0.334565303
-0.910907479	-0.524190831	-0.334565303
-0.828256774	-0.646930583	-0.334565303
-0.729186696	-0.756845576	-0.334565303
-0.615661213	-0.851756852	-0.334565303
-0.489930854	-0.92978289	-0.334565303
-0.354488099	-0.9893769	-0.334565303
-0.212017968	-1.029357491	-0.334565303
-0.065344791	-1.048932086	-0.334565303
0.082623783	-1.047712639	-0.334565303
0.228954421	-1.025723323	-0.334565303
0.370746264	-0.983400056	-0.334565303
0.505188429	-0.921581854	-0.334565303
0.629615733	-0.841494202	-0.334565303
0.741561526	-0.744724759	-0.334565303
0.838806594	-0.633191883	-0.334565303
0.919423151	-0.509106603	-0.334565303
0.981813051	-0.374928788	-0.334565303
1.024739478	-0.23331838	-0.334565303
1.047351456	-0.087082665	-0.334565303
0.982395289	0	-0.3596699
0.971253669	0.147535807	-0.3596699
0.938081529	0.291725124	-0.3596699
0.883631299	0.429297369	-0.3596699
0.809138049	0.55713205	-0.3596699
0.716291476	0.67232955	-0.3596699
0.607197579	0.772276895	-0.3596699
0.484330887	0.854707023	-0.3596699
0.35047833	0.917750207	-0.3596699
0.208676028	0.959976468	-0.3596699
0.062140419	0.980428004	-0.3596699
-0.085804694	0.978640924	-0.3596699
-0.231803537	0.954655762	-0.3596699
-0.372544482	0.909016563	-0.3596699
-0.504835164	0.842758542	-0.3596699
-0.625674893	0.7573846	-0.3596699
-0.732322713	0.654831236	-0.3596699
-0.82235958	0.537424623	-0.3596699
-0.893743226	0.407827844	-0.3596699
-0.944854487	0.268980485	-0.3596699
-0.97453403	0.12403196	-0.3596699
-0.982108647	-0.023729927	-0.3596699
-0.967406525	-0.170953558	-0.3596699
-0.930761146	-0.314299525	-0.3596699
-0.873003723	-0.450516375	-0.3596699
-0.795444339	-0.576514359	-0.3596699
-0.699842242	-0.689435522	-0.3596699
-0.588365931	-0.786718523	-0.3596699
-0.463543975	-0.866156733	-0.3596699
-0.328207655	-0.925948292	-0.3596699
-0.185426745	-0.964736972	-0.3596699
-0.038439881	-0.981642949	-0.3596699
0.109418897	-0.97628275	-0.3596699
0.254795775	-0.948777959	-0.3596699
0.394393232	-0.899752456	-0.3596699
0.525044841	-0.830318263	-0.3596699
0.643787089	-0.742050327	-0.3596699
0.747926598	-0.636950789	-0.3596699
0.835101216	-0.517403577	-0.3596699
0.903333602	-0.386120327	-0.3596699
0.951076068	-0.24607888	-0.3596699
0.977245695	-0.100455734	-0.3596699
0.909038955	0	-0.383022222
0.897002074	0.147441856	-0.383022222
0.8612102	0.290979061	-0.383022222
0.802611196	0.426810369	-0.383022222
0.722756919	0.551338606	-0.383022222
0.623762122	0.661265935	-0.383022222
0.50824845	0.753681189	-0.383022222
0.379275012	0.826136967	-0.383022222
0.240257366	0.876714446	-0.383022222
0.094877067	0.904074203	-0.383022222
-0.053015827	0.907491677	-0.383022222
-0.199504723	0.886876366	-0.383022222
-0.340710204	0.842774216	-0.383022222
-0.472892775	0.776353171	-0.383022222
-0.592551892	0.689372235	-0.383022222
-0.696518663	0.584134894	-0.383022222
-0.782039773	0.463428112	-0.383022222
-0.846850397	0.330448525	-0.383022222
-0.889234176	0.188717785	-0.383022222
-0.908068676	0.041989297	-0.383022222
-0.90285511	-0.105851178	-0.383022222
-0.873731547	-0.250888434	-0.383022222
-0.821469255	-0.389281498	-0.383022222
-0.747452279	-0.517365357	-0.383022222
-0.653640785	-0.631748008	-0.383022222
-0.54251915	-0.729400298	-0.383022222
-0.417030169	-0.807736133	-0.383022222
-0.280497123	-0.864680974	-0.383022222
-0.13653577	-0.898726769	-0.383022222
0.011041413	-0.908971897	-0.383022222
0.15832619	-0.895145039	-0.383022222
0.301418069	-0.857612366	-0.383022222
0.436527599	-0.797367844	-0.383022222
0.56007672	-0.716006907	-0.383022222
0.668793524	-0.615684208	-0.383022222
0.759798903	-0.499056559	-0.383022222
0.830682792	-0.369212569	-0.383022222
0.879567998	-0.229590851	-0.383022222
0.905159911	-0.083888959	-0.383022222
0.831253876	0	-0.404508497
0.818096341	0.147313889	-0.404508497
0.779040268	0.28996425	-0.404508497
0.715322057	0.423435191	-0.404508497
0.628958839	0.543501411	-0.404508497
0.522684624	0.646361965	-0.404508497
0.39986374	0.728760588	-0.404508497
0.264384339	0.788088781	-0.404508497
0.120535303	0.822468386	-0.404508497
-0.027129529	0.830811046	-0.404508497
-0.173935519	0.812852656	-0.404508497
-0.315235219	0.769161727	-0.404508497
-0.446555493	0.701121386	-0.404508497
-0.563739125	0.61088559	-0.404508497
-0.663076425	0.501310942	-0.404508497
-0.741422662	0.375866255	-0.404508497
-0.796297625	0.238522741	-0.404508497
-0.825964133	0.093628293	-0.404508497
-0.82948303	-0.054230152	-0.404508497
-0.806742918	-0.200371829	-0.404508497
-0.758463683	-0.34017032	-0.404508497
-0.686173705	-0.469200012	-0.404508497
-0.592161473	-0.583376204	-0.404508497
-0.479403139	-0.67908441	-0.404508497
-0.351468303	-0.753294788	-0.404508497
-0.212407008	-0.803658055	-0.404508497
-0.066621527	-0.828579856	-0.404508497
0.081272996	-0.827271241	-0.404508497
0.226594654	-0.799773636	-0.404508497
0.364742987	-0.746957535	-0.404508497
0.491344623	-0.670494942	-0.404508497
0.602391725	-0.572806438	-0.404508497
0.694368865	-0.456984557	-0.404508497
0.764364316	-0.32669588	-0.404508497
0.810162227	-0.186064966	-0.404508497
0.830312769	-0.03954378	-0.404508497
0.74941901	0	-0.424024048
0.734833597	0.147134082	-0.424024048
0.691645087	0.288541031	-0.424024048
0.621534577	0.418716638	-0.424024048
0.527231088	0.532593872	-0.424024048
0.412405346	0.625740109	-0.424024048
0.281526895	0.694529669	-0.424024048
0.139690125	0.736284946	-0.424024048
-0.007584025	0.749380635	-0.424024048
-0.154562971	0.73330699	-0.424024048
-0.295525616	0.688689671	-0.424024048
-0.424985048	0.61726539	-0.424024048
-0.537902111	0.521814308	-0.424024048
-0.629881556	0.406051817	-0.424024048
-0.69734312	0.274483927	-0.424024048
-0.73766089	0.132231862	-0.424024048
-0.749265512	-0.015167274	-0.424024048
-0.731705282	-0.161976029	-0.424024048
-0.685663724	-0.302479935	-0.424024048
-0.612932987	-0.431209933	-0.424024048
-0.516344086	-0.543155261	-0.424024048
-0.399656703	-0.633958495	-0.424024048
-0.267412847	-0.700085154	-0.424024048
-0.124760056	-0.738961286	-0.424024048
0.022748969	-0.749073653	-0.424024048
0.1693725	-0.730028636	-0.424024048
0.309403275	-0.682567554	-0.424024048
0.437390656	-0.608537811	-0.424024048
0.548352785	-0.510820983	-0.424024048
0.637970506	-0.393220658	-0.424024048
0.702755488	-0.260314381	-0.424024048
0.740186001	-0.117275473	-0.424024048
0.663933051	0	-0.441473796
0.647484354	0.146871057	-0.441473796
0.598953284	0.286464762	-0.441473796
0.52074452	0.411864348	-0.441473796
0.416733248	0.516856359	-0.441473796
0.292073151	0.596238518	-0.441473796
0.152941044	0.646077498	-0.441473796
0.006230821	0.663903813	-0.441473796
-0.140788135	0.648834184	-0.441473796
-0.280831142	0.601615298	-0.441473796
-0.406959173	0.524586817	-0.441473796
-0.512922676	0.421565445	-0.441473796
-0.593471239	0.297655816	-0.441473796
-0.644613739	0.158997561	-0.441473796
-0.663816102	0.012461093	-0.441473796
-0.650126867	-0.134692812	-0.441473796
-0.604224324	-0.275172788	-0.441473796
-0.52838291	-0.402018155	-0.441473796
-0.426360513	-0.508943818	-0.441473796
-0.303212266	-0.59065169	-0.441473796
-0.165040074	-0.643093205	-0.441473796
-0.018690268	-0.663669926	-0.441473796
0.128585627	-0.65136229	-0.441473796
0.269490198	-0.606780133	-0.441473796
0.397041729	-0.532132467	-0.441473796
0.504920134	-0.431118028	-0.441473796
0.587780119	-0.308742009	-0.441473796
0.641516031	-0.171068051	-0.441473796
0.663465297	-0.024917797	-0.441473796
0.575212477	0	-0.456772729
0.556252902	0.146465363	-0.456772729
0.500624031	0.283275437	-0.456772729
0.411993028	0.401411433	-0.456772729
0.296202627	0.493085588	-0.456772729
0.16088596	0.552254562	-0.456772729
0.01496337	0.575017818	-0.456772729
-0.131945634	0.559874757	-0.456772729
-0.270156521	0.507823639	-0.456772729
-0.390558152	0.422295777	-0.456772729
-0.485213414	0.308929339	-0.456772729
-0.547882443	0.175197665	-0.456772729
-0.574433974	0.029916613	-0.456772729
-0.563117675	-0.117336602	-0.456772729
-0.51467954	-0.256854755	-0.456772729
-0.432312706	-0.379440532	-0.456772729
-0.321446961	-0.477012835	-0.456772729
-0.189390793	-0.543139504	-0.456772729
-0.044849607	-0.573461338	-0.456772729
0.102648154	-0.565979461	-0.456772729
0.243379144	-0.521187093	-0.456772729
0.368066098	-0.442037036	-0.456772729
0.468489403	-0.333747019	-0.456772729
0.538028956	-0.203455736	-0.456772729
0.57210057	-0.059752246	-0.456772729
0.483689525	0	-0.46984631
0.461194053	0.145793011	-0.46984631
