# .PCD v.5 - Point Cloud Data file format
VERSION .5
FIELDS x y z
SIZE 4 4 4
TYPE F F F
COUNT 1 1 1
WIDTH 1305
HEIGHT 1
POINTS 1305
DATA ascii
-0.912859079	0.645236903	0.307556097
-0.98687266	0.525094954	0.307556097
-1.045161178	0.396586017	0.307556097
-1.08679585	0.261757785	0.307556097
-1.111113259	0.122758642	0.307556097
-1.117725925	-0.018196566	0.307556097
-1.10652848	-0.158861826	0.307556097
-1.077699349	-0.296995744	0.307556097
-1.031697899	-0.430397261	0.307556097
-0.969257131	-0.556940726	0.307556097
-0.891371989	-0.674609765	0.307556097
-0.799283514	-0.781529412	0.307556097
-0.694459066	-0.875995983	0.307556097
-0.578568942	-0.956504227	0.307556097
-0.453459764	-1.021771305	0.307556097
-0.321125049	-1.070757237	0.307556097
-0.183673452	-1.102681468	0.307556097
-0.043295159	-1.117035311	0.307556097
0.09777301	-1.113590049	0.307556097
0.23728324	-1.092400577	0.307556097
0.373012543	-1.053804536	0.307556097
0.502798176	-0.998416923	0.307556097
0.624572103	-0.927120298	0.307556097
0.73639395	-0.841050717	0.307556097
0.83648192	-0.741579635	0.307556097
0.923241189	-0.630292046	0.307556097
0.995289314	-0.508961235	0.307556097
1.051478263	-0.379520514	0.307556097
1.090912707	-0.244032424	0.307556097
1.112964289	-0.104655863	0.307556097
1.167748416	0	0.275
1.159221617	0.140860235	0.275
1.133765744	0.279663371	0.275
1.09175255	0.414382351	0.275
1.033795589	0.543049762	0.275
0.960741254	0.663786567	0.275
0.873656418	0.774829547	0.275
0.773812854	0.874557049	0.275
0.662668659	0.961512669	0.275
0.541846964	1.034426523	0.275
0.413112229	1.092233789	0.275
0.278344474	1.13409026	0.275
0.139511823	1.159384671	0.275
-0.001358234	1.167747626	0.275
-0.142208455	1.159056996	0.275
-0.280981889	1.133439695	0.275
-0.415651912	1.091269835	0.275
-0.544251825	1.033163257	0.275
-0.664903577	0.95996854	0.275
-0.775845192	0.872754606	0.275
-0.875456496	0.772795114	0.275
-0.962282783	0.661549854	0.275
-1.035056057	0.540643433	0.275
-1.09271355	0.411841548	0.275
-1.134413241	0.2770252	0.275
-1.159546156	0.138163223	0.275
-1.167745257	-0.002716466	0.275
-1.158890806	-0.143556484	0.275
-1.133112112	-0.282300028	0.275
-1.090785643	-0.41692091	0.275
-1.032529527	-0.545453151	0.275
-0.959194526	-0.666019688	0.275
-0.871851613	-0.776859787	0.275
-0.771776328	-0.876354758	0.275
-0.660430154	-0.963051595	0.275
-0.539439171	-1.035684191	0.275
-0.410570311	-1.093191833	0.275
-0.275705552	-1.134734688	0.275
-0.136814436	-1.159706072	0.275
0.004074694	-1.167741307	0.275
0.144904318	-1.158723048	0.275
0.283617784	-1.132782996	0.275
0.418189345	-1.090299975	0.275
0.54665374	-1.0318944	0.275
0.667134897	-0.958419215	0.275
0.777873331	-0.870947441	0.275
0.877251836	-0.770756499	0.275
0.963819105	-0.659309561	0.275
1.036310924	-0.538234179	0.275
1.093668637	-0.409298518	0.275
1.1350546	-0.27438553	0.275
1.15986442	-0.135465464	0.275
1.211933645	0	0.241104131
1.203717003	0.140884834	0.241104131
1.179178491	0.279859331	0.241104131
1.138650841	0.41503906	0.241104131
1.082683589	0.544591044	0.241104131
1.012035627	0.666758613	0.241104131
0.92766491	0.779885231	0.241104131
0.830715468	0.88243695	0.241104131
0.722501891	0.973023215	0.241104131
0.604491508	1.050415716	0.241104131
0.478284488	1.113565044	0.241104131
0.345592142	1.161614924	0.241104131
0.20821372	1.193913819	0.241104131
0.068012012	1.210023771	0.241104131
-0.07311191	1.209726336	0.241104131
-0.213244465	1.193025548	0.241104131
-0.350485521	1.160147861	0.241104131
-0.482974148	1.111539083	0.241104131
-0.608913859	1.047858326	0.241104131
-0.726596968	0.969969075	0.241104131
-0.834427743	0.878927472	0.241104131
-0.930944048	0.775968002	0.241104131
-1.014837163	0.662486749	0.241104131
-1.084969535	0.540022469	0.241104131
-1.140390201	0.410235723	0.241104131
-1.180347681	0.274886362	0.241104131
-1.204300168	0.135809664	0.241104131
-1.211922878	-0.005108553	0.241104131
-1.20311245	-0.1459575	0.241104131
-1.17798835	-0.284827328	0.241104131
-1.136891249	-0.419835024	0.241104131
-1.080378406	-0.549149942	0.241104131
-1.00921611	-0.671018631	0.241104131
-0.92436929	-0.783788603	0.241104131
-0.826988432	-0.885930749	0.241104131
-0.718393977	-0.976060067	0.241104131
-0.600058417	-1.052954441	0.241104131
-0.473586331	-1.11557122	0.241104131
-0.340692623	-1.163061347	0.241104131
-0.203179275	-1.194780876	0.241104131
-0.062910905	-1.210299706	0.241104131
0.078210508	-1.209407407	0.241104131
0.218271422	-1.192116079	0.241104131
0.355372672	-1.158660185	0.241104131
0.487655226	-1.109493371	0.241104131
0.61332539	-1.045282318	0.241104131
0.730679134	-0.9668977	0.241104131
0.838125192	-0.875402377	0.241104131
0.934206644	-0.772036985	0.241104131
1.017620667	-0.658203113	0.241104131
1.087236204	-0.535444298	0.241104131
1.142109299	-0.405425096	0.241104131
1.181495898	-0.269908509	0.241104131
1.204861935	-0.130732082	0.241104131
1.250214454	0	0.206033626
1.242248858	0.140904073	0.206033626
1.218453571	0.280012638	0.206033626
1.179131812	0.415553066	0.206033626
1.12478465	0.545798199	0.206033626
1.056104617	0.66908835	0.206033626
0.973966887	0.783852464	0.206033626
0.879418122	0.888628127	0.206033626
0.773663136	0.982080208	0.206033626
0.658049539	1.063017867	0.206033626
0.534050569	1.130409736	0.206033626
0.403246316	1.183397055	0.206033626
0.267303589	1.221304619	0.206033626
0.127954674	1.243649381	0.206033626
-0.013024738	1.250146607	0.206033626
-0.153838178	1.240713503	0.206033626
-0.292691294	1.215470275	0.206033626
-0.427814713	1.174738589	0.206033626
-0.557486588	1.119037482	0.206033626
-0.68005454	1.049076739	0.206033626
-0.793956715	0.965747854	0.206033626
-0.897741683	0.870112667	0.206033626
-0.990086936	0.763389836	0.206033626
-1.069815741	0.646939304	0.206033626
-1.13591213	0.522244975	0.206033626
-1.187533855	0.390895799	0.206033626
-1.22402311	0.254565528	0.206033626
-1.244914922	0.114991388	0.206033626
-1.249943071	-0.026048062	0.206033626
-1.239043485	-0.166755586	0.206033626
-1.212355054	-0.305338183	0.206033626
-1.170217863	-0.440029926	0.206033626
-1.113168856	-0.56911447	0.206033626
-1.041934997	-0.690946919	0.206033626
-0.957424	-0.803974792	0.206033626
-0.860712772	-0.9067578	0.206033626
-0.753033679	-0.997986203	0.206033626
-0.635758852	-1.076497498	0.206033626
-0.510382698	-1.141291235	0.206033626
-0.378502855	-1.191541762	0.206033626
-0.241799837	-1.226608748	0.206033626
-0.10201562	-1.246045342	0.206033626
0.039068558	-1.249603869	0.206033626
0.179654895	-1.237238983	0.206033626
0.317951931	-1.209108246	0.206033626
0.452197379	-1.165570123	0.206033626
0.580680581	-1.10717941	0.206033626
0.701764304	-1.034680165	0.206033626
0.813905607	-0.94899623	0.206033626
0.915675499	-0.851219456	0.206033626
1.00577715	-0.74259579	0.206033626
1.083062415	-0.624509397	0.206033626
1.146546467	-0.498465025	0.206033626
1.195420342	-0.366068828	0.206033626
1.229061253	-0.229007902	0.206033626
1.24704052	-0.08902878	0.206033626
1.282404345	0	0.169959347
1.274638285	0.140918936	0.169959347
1.251434165	0.280131102	0.169959347
1.213073027	0.415950399	0.169959347
1.160019491	0.546731822	0.169959347
1.092916125	0.670891383	0.169959347
1.012575667	0.786925297	0.169959347
0.919971178	0.893428193	0.169959347
0.816224257	0.989110139	0.169959347
0.702591457	1.072812261	0.169959347
0.580449069	1.143520784	0.169959347
0.451276444	1.200379305	0.169959347
0.316638086	1.24269917	0.169959347
0.178164697	1.269967812	0.169959347
0.037533428	1.281854963	0.169959347
-0.103552436	1.278216647	0.169959347
-0.243384102	1.259096931	0.169959347
-0.380267968	1.224727389	0.169959347
-0.512546136	1.175524293	0.169959347
-0.638616489	1.112083578	0.169959347
-0.7569521	1.03517362	0.169959347
-0.86611972	0.94572593	0.169959347
-0.964797141	0.844823875	0.169959347
-1.051789212	0.733689551	0.169959347
-1.126042308	0.613668986	0.169959347
-1.186657097	0.486215835	0.169959347
-1.232899429	0.352873775	0.169959347
-1.264209231	0.215257807	0.169959347
-1.280207287	0.075034697	0.169959347
-1.280699833	-0.066097212	0.169959347
-1.265680903	-0.20642857	0.169959347
-1.235332403	-0.344259723	0.169959347
-1.190021905	-0.4779213	0.169959347
-1.130298197	-0.605794429	0.169959347
-1.056884636	-0.726330346	0.169959347
-0.970670385	-0.838069154	0.169959347
-0.872699648	-0.939657505	0.169959347
-0.764159019	-1.02986499	0.169959347
-0.646363112	-1.107599039	0.169959347
-0.520738636	-1.171918161	0.169959347
-0.388807121	-1.222043341	0.169959347
-0.252166484	-1.257367476	0.169959347
-0.112471677	-1.27746273	0.169959347
0.028585356	-1.282085715	0.169959347
0.16929617	-1.27118044	0.169959347
0.307956517	-1.244878985	0.169959347
0.442886981	-1.203499907	0.169959347
0.572453323	-1.147544377	0.169959347
0.695086272	-1.077690113	0.169959347
0.809300531	-0.994783169	0.169959347
0.913712771	-0.899827693	0.169959347
1.007058379	-0.793973756	0.169959347
1.088206779	-0.678503434	0.169959347
1.156175126	-0.554815269	0.169959347
1.210140205	-0.424407337	0.169959347
1.249448407	-0.288859104	0.169959347
1.273623642	-0.14981229	0.169959347
1.282373106	-0.008950993	0.169959347
1.30834649	0	0.133057043
1.300734115	0.140930126	0.133057043
1.277985572	0.280220299	0.133057043
1.240365578	0.416249652	0.133057043
1.188311902	0.547435259	0.133057043
1.122430275	0.672250561	0.133057043
1.043487336	0.78924313	0.133057043
0.952401717	0.897051564	0.133057043
0.850233346	0.994421337	0.133057043
0.738171121	1.080219392	0.133057043
0.617519067	1.153447329	0.133057043
0.48968117	1.21325302	0.133057043
0.356145032	1.258940529	0.133057043
0.218464564	1.289978206	0.133057043
0.078241904	1.306004879	0.133057043
-0.062891228	1.306834049	0.133057043
-0.203292519	1.292456069	0.133057043
-0.341328168	1.26303825	0.133057043
-0.475391907	1.218922916	0.133057043
-0.603923683	1.16062342	0.133057043
-0.72542782	1.088818175	0.133057043
-0.838490418	1.004342749	0.133057043
-0.94179581	0.908180154	0.133057043
-1.034141867	0.801449398	0.133057043
-1.114453994	0.685392468	0.133057043
-1.181797626	0.561359876	0.133057043
-1.235389111	0.430794944	0.133057043
-1.274604824	0.295217009	0.133057043
-1.298988426	0.156203742	0.133057043
-1.308256174	0.015372788	0.133057043
-1.302300223	-0.125637053	0.133057043
-1.281189879	-0.265184902	0.133057043
-1.245170797	-0.40164689	0.133057043
-1.194662117	-0.533435061	0.133057043
-1.130251591	-0.659015843	0.133057043
-1.052688739	-0.776927897	0.133057043
-0.962876133	-0.885799126	0.133057043
-0.861858889	-0.984362634	0.133057043
-0.750812508	-1.071471473	0.133057043
-0.631029196	-1.14611199	0.133057043
-0.503902827	-1.20741562	0.133057043
-0.370912726	-1.254668996	0.133057043
-0.233606448	-1.287322247	0.133057043
-0.093581777	-1.304995398	0.133057043
0.04753187	-1.307482795	0.133057043
0.188092406	-1.294755493	0.133057043
0.32646418	-1.266961593	0.133057043
0.46103701	-1.224424524	0.133057043
0.59024492	-1.167639274	0.133057043
0.712584365	-1.097266632	0.133057043
0.826631726	-1.014125499	0.133057043
0.931059876	-0.919183358	0.133057043
1.024653622	-0.813545016	0.133057043
1.106323849	-0.698439748	0.133057043
1.175120188	-0.575206991	0.133057043
1.230242083	-0.445280761	0.133057043
1.2710481	-0.310172961	0.133057043
1.297063395	-0.171455791	0.133057043
1.307985237	-0.030743453	0.133057043
1.327914503	0	0.095506498
1.32041409	0.140938136	0.095506498
1.29799758	0.28028416	0.095506498
1.260918201	0.416463946	0.095506498
1.209594822	0.547939134	0.095506498
1.144607219	0.673224512	0.095506498
1.066689525	0.790904788	0.095506498
0.976721942	0.899650585	0.095506498
0.87572079	0.998233452	0.095506498
0.764827032	1.085539745	0.095506498
0.645293383	1.160583206	0.095506498
0.518470157	1.222516104	0.095506498
0.385790018	1.270638812	0.095506498
0.24875179	1.30440771	0.095506498
0.10890353	1.323441328	0.095506498
-0.032174962	1.327524651	0.095506498
-0.172889988	1.316611552	0.095506498
-0.311651958	1.290825312	0.095506498
-0.446893342	1.250457224	0.095506498
-0.577086381	1.195963309	0.095506498
-0.700760348	1.127959159	0.095506498
-0.816518153	1.047212984	0.095506498
-0.923052138	0.954636936	0.095506498
-1.019158836	0.851276803	0.095506498
-1.103752575	0.738300197	0.095506498
-1.175877741	0.61698336	0.095506498
-1.234719568	0.488696752	0.095506498
-1.279613349	0.354889567	0.095506498
-1.310051939	0.217073361	0.095506498
-1.325691489	0.07680498	0.095506498
-1.326355324	-0.064331032	0.095506498
-1.312035947	-0.204740326	0.095506498
-1.282895117	-0.342836765	0.095506498
-1.239262023	-0.477060337	0.095506498
-1.181629569	-0.605894784	0.095506498
-1.110648801	-0.727884722	0.095506498
-1.027121556	-0.841652088	0.095506498
-0.931991401	-0.945911707	0.095506498
-0.826332977	-1.039485805	0.095506498
-0.711339858	-1.121317321	0.095506498
-0.588311067	-1.190481842	0.095506498
-0.458636403	-1.246198049	0.095506498
-0.323780738	-1.287836543	0.095506498
-0.185267475	-1.314926953	0.095506498
-0.044661332	-1.32716325	0.095506498
0.096449329	-1.324407209	0.095506498
0.236470447	-1.306689962	0.095506498
0.37382027	-1.274211652	0.095506498
0.506947221	-1.227339172	0.095506498
0.634347427	-1.166602019	0.095506498
0.754581708	-1.092686311	0.095506498
0.866291835	-1.006427039	0.095506498
0.96821587	-0.908798634	0.095506498
1.059202426	-0.800903958	0.095506498
1.138223669	-0.683961846	0.095506498
1.204386935	-0.559293339	0.095506498
1.256944808	-0.428306758	0.095506498
1.295303565	-0.292481797	0.095506498
1.319029888	-0.153352806	0.095506498
1.327855749	-0.012491461	0.095506498
1.34101305	0	0.057490655
1.333585762	0.140943303	0.057490655
1.311386173	0.280325359	0.057490655
1.274660188	0.416602215	0.057490655
1.223814628	0.548264314	0.057490655
1.159412714	0.673853218	0.057490655
1.082167835	0.791977763	0.057490655
0.992935643	0.901329467	0.057490655
0.892704575	1.000697029	0.057490655
0.782584902	1.088979739	0.057490655
0.663796434	1.16519968	0.057490655
0.537655008	1.228512553	0.057490655
0.405557907	1.278217033	0.057490655
0.268968389	1.313762538	0.057490655
0.129399474	1.334755325	0.057490655
-0.011602817	1.340962854	0.057490655
-0.152476581	1.332316364	0.057490655
-0.291661343	1.308911632	0.057490655
-0.427615334	1.271007918	0.057490655
-0.558832575	1.219025083	0.057490655
-0.683859555	1.15353895	0.057490655
-0.801311334	1.075274917	0.057490655
-0.909886884	0.985099924	0.057490655
-1.008383498	0.884012851	0.057490655
-1.095710118	0.773133454	0.057490655
-1.170899416	0.653689957	0.057490655
-1.233118508	0.527005451	0.057490655
-1.281678187	0.394483238	0.057490655
-1.316040551	0.257591284	0.057490655
-1.335824963	0.117845957	0.057490655
-1.340812269	-0.023204765	0.057490655
-1.330947223	-0.163998445	0.057490655
-1.306339103	-0.302975492	0.057490655
-1.267260495	-0.438596441	0.057490655
-1.214144279	-0.569359	0.057490655
-1.147578829	-0.693814696	0.057490655
-1.068301499	-0.810584917	0.057490655
-0.977190456	-0.918376183	0.057490655
-0.875254947	-1.015994477	0.057490655
-0.763624126	-1.102358469	0.057490655
-0.643534541	-1.176511494	0.057490655
-0.516316441	-1.237632148	0.057490655
-0.383379037	-1.28504339	0.057490655
-0.246194894	-1.31822004	0.057490655
-0.106283618	-1.336794597	0.057490655
0.034804976	-1.340561306	0.057490655
0.17550803	-1.329478444	0.057490655
0.31426696	-1.303668776	0.057490655
0.449544713	-1.263418201	0.057490655
0.579842801	-1.209172579	0.057490655
0.703717896	-1.141532796	0.057490655
0.819797816	-1.061248106	0.057490655
0.926796729	-0.969207833	0.057490655
1.023529396	-0.866431519	0.057490655
1.108924294	-0.754057631	0.057490655
1.182035494	-0.633330949	0.057490655
1.242053134	-0.505588778	0.057490655
1.288312391	-0.372246135	0.057490655
1.320300844	-0.234780073	0.057490655
1.337664153	-0.094713322	0.057490655
1.347578316	0	0.019194723
1.340187147	0.140945837	0.019194723
1.318094718	0.28034556	0.019194723
1.281543373	0.416670016	0.019194723
1.230934063	0.548423787	0.019194723
1.166821952	0.674161591	0.019194723
1.089910319	0.792504141	0.019194723
1.001042853	0.902153271	0.019194723
0.901194389	1.001906179	0.019194723
0.791460222	1.090668619	0.019194723
0.673044086	1.167466906	0.019194723
0.547244954	1.231458598	0.019194723
0.415442786	1.281941734	0.019194723
0.279083396	1.318362536	0.019194723
0.139662583	1.340321484	0.019194723
-0.001290266	1.347577699	0.019194723
-0.142228961	1.340051582	0.019194723
-0.281607467	1.317825691	0.019194723
-0.417896865	1.281143836	0.019194723
-0.549602118	1.2304084	0.019194723
-0.675278479	1.166175928	0.019194723
-0.793547334	1.089151021	0.019194723
-0.903111326	1.00017861	0.019194723
-1.002768586	0.900234681	0.019194723
-1.091425918	0.790415577	0.019194723
-1.168110791	0.671925963	0.019194723
-1.231982004	0.546065618	0.019194723
-1.28233892	0.414215175	0.019194723
-1.318629146	0.277820975	0.019194723
-1.340454593	0.138379202	0.019194723
-1.347575845	-0.00258053	0.019194723
-1.339914787	-0.143511955	0.019194723
-1.317555457	-0.282869117	0.019194723
-1.280743125	-0.41912333	0.019194723
-1.229881608	-0.550779945	0.019194723
-1.165528834	-0.676394748	0.019194723
-1.088390724	-0.7945898	0.019194723
-0.999313449	-0.904068553	0.019194723
-0.899274148	-1.003630074	0.019194723
-0.789370207	-1.092182217	0.019194723
-0.670807224	-1.168753604	0.019194723
-0.544885782	-1.232504281	0.019194723
-0.412987185	-1.282734931	0.019194723
-0.2765583	-1.318894547	0.019194723
-0.137095694	-1.340586472	0.019194723
0.003870792	-1.347572757	0.019194723
0.144794817	-1.339776765	0.019194723
0.284130507	-1.317284014	0.019194723
0.42034941	-1.28034124	0.019194723
0.551957267	-1.22935369	0.019194723
0.677510397	-1.164880672	0.019194723
0.795631537	-1.08762943	0.019194723
0.905024951	-0.998447373	0.019194723
1.004490642	-0.89831279	0.019194723
1.092937514	-0.788324114	0.019194723
1.169395346	-0.66968787	0.019194723
1.233025428	-0.543705447	0.019194723
1.283129766	-0.411758816	0.019194723
1.319158738	-0.275295372	0.019194723
1.340717123	-0.13581206	0.019194723
1.347578316	0	-0.019194723
1.340187147	0.140945837	-0.019194723
1.318094718	0.28034556	-0.019194723
1.281543373	0.416670016	-0.019194723
1.230934063	0.548423787	-0.019194723
1.166821952	0.674161591	-0.019194723
1.089910319	0.792504141	-0.019194723
1.001042853	0.902153271	-0.019194723
0.901194389	1.001906179	-0.019194723
0.791460222	1.090668619	-0.019194723
0.673044086	1.167466906	-0.019194723
0.547244954	1.231458598	-0.019194723
0.415442786	1.281941734	-0.019194723
0.279083396	1.318362536	-0.019194723
0.139662583	1.340321484	-0.019194723
-0.001290266	1.347577699	-0.019194723
-0.142228961	1.340051582	-0.019194723
-0.281607467	1.317825691	-0.019194723
-0.417896865	1.281143836	-0.019194723
-0.549602118	1.2304084	-0.019194723
-0.675278479	1.166175928	-0.019194723
-0.793547334	1.089151021	-0.019194723
-0.903111326	1.00017861	-0.019194723
-1.002768586	0.900234681	-0.019194723
-1.091425918	0.790415577	-0.019194723
-1.168110791	0.671925963	-0.019194723
-1.231982004	0.546065618	-0.019194723
-1.28233892	0.414215175	-0.019194723
-1.318629146	0.277820975	-0.019194723
-1.340454593	0.138379202	-0.019194723
-1.347575845	-0.00258053	-0.019194723
-1.339914787	-0.143511955	-0.019194723
-1.317555457	-0.282869117	-0.019194723
-1.280743125	-0.41912333	-0.019194723
-1.229881608	-0.550779945	-0.019194723
-1.165528834	-0.676394748	-0.019194723
-1.088390724	-0.7945898	-0.019194723
-0.999313449	-0.904068553	-0.019194723
-0.899274148	-1.003630074	-0.019194723
-0.789370207	-1.092182217	-0.019194723
-0.670807224	-1.168753604	-0.019194723
-0.544885782	-1.232504281	-0.019194723
-0.412987185	-1.282734931	-0.019194723
-0.2765583	-1.318894547	-0.019194723
-0.137095694	-1.340586472	-0.019194723
0.003870792	-1.347572757	-0.019194723
0.144794817	-1.339776765	-0.019194723
0.284130507	-1.317284014	-0.019194723
0.42034941	-1.28034124	-0.019194723
0.551957267	-1.22935369	-0.019194723
0.677510397	-1.164880672	-0.019194723
0.795631537	-1.08762943	-0.019194723
0.905024951	-0.998447373	-0.019194723
1.004490642	-0.89831279	-0.019194723
1.092937514	-0.788324114	-0.019194723
1.169395346	-0.66968787	-0.019194723
1.233025428	-0.543705447	-0.019194723
1.283129766	-0.411758816	-0.019194723
1.319158738	-0.275295372	-0.019194723
1.340717123	-0.13581206	-0.019194723
1.34101305	0	-0.057490655
1.333585762	0.140943303	-0.057490655
1.311386173	0.280325359	-0.057490655
1.274660188	0.416602215	-0.057490655
1.223814628	0.548264314	-0.057490655
1.159412714	0.673853218	-0.057490655
1.082167835	0.791977763	-0.057490655
0.992935643	0.901329467	-0.057490655
0.892704575	1.000697029	-0.057490655
0.782584902	1.088979739	-0.057490655
0.663796434	1.16519968	-0.057490655
0.537655008	1.228512553	-0.057490655
0.405557907	1.278217033	-0.057490655
0.268968389	1.313762538	-0.057490655
0.129399474	1.334755325	-0.057490655
-0.011602817	1.340962854	-0.057490655
-0.152476581	1.332316364	-0.057490655
-0.291661343	1.308911632	-0.057490655
-0.427615334	1.271007918	-0.057490655
-0.558832575	1.219025083	-0.057490655
-0.683859555	1.15353895	-0.057490655
-0.801311334	1.075274917	-0.057490655
-0.909886884	0.985099924	-0.057490655
-1.008383498	0.884012851	-0.057490655
-1.095710118	0.773133454	-0.057490655
-1.170899416	0.653689957	-0.057490655
-1.233118508	0.527005451	-0.057490655
-1.281678187	0.394483238	-0.057490655
-1.316040551	0.257591284	-0.057490655
-1.335824963	0.117845957	-0.057490655
-1.340812269	-0.023204765	-0.057490655
-1.330947223	-0.163998445	-0.057490655
-1.306339103	-0.302975492	-0.057490655
-1.267260495	-0.438596441	-0.057490655
-1.214144279	-0.569359	-0.057490655
-1.147578829	-0.693814696	-0.057490655
-1.068301499	-0.810584917	-0.057490655
-0.977190456	-0.918376183	-0.057490655
-0.875254947	-1.015994477	-0.057490655
-0.763624126	-1.102358469	-0.057490655
-0.643534541	-1.176511494	-0.057490655
-0.516316441	-1.237632148	-0.057490655
-0.383379037	-1.28504339	-0.057490655
-0.246194894	-1.31822004	-0.057490655
-0.106283618	-1.336794597	-0.057490655
0.034804976	-1.340561306	-0.057490655
0.17550803	-1.329478444	-0.057490655
0.31426696	-1.303668776	-0.057490655
0.449544713	-1.263418201	-0.057490655
0.579842801	-1.209172579	-0.057490655
0.703717896	-1.141532796	-0.057490655
0.819797816	-1.061248106	-0.057490655
0.926796729	-0.969207833	-0.057490655
1.023529396	-0.866431519	-0.057490655
1.108924294	-0.754057631	-0.057490655
1.182035494	-0.633330949	-0.057490655
1.242053134	-0.505588778	-0.057490655
1.288312391	-0.372246135	-0.057490655
1.320300844	-0.234780073	-0.057490655
1.337664153	-0.094713322	-0.057490655
1.327914503	0	-0.095506498
1.32041409	0.140938136	-0.095506498
1.29799758	0.28028416	-0.095506498
1.260918201	0.416463946	-0.095506498
1.209594822	0.547939134	-0.095506498
1.144607219	0.673224512	-0.095506498
1.066689525	0.790904788	-0.095506498
0.976721942	0.899650585	-0.095506498
0.87572079	0.998233452	-0.095506498
0.764827032	1.085539745	-0.095506498
0.645293383	1.160583206	-0.095506498
0.518470157	1.222516104	-0.095506498
0.385790018	1.270638812	-0.095506498
0.24875179	1.30440771	-0.095506498
0.10890353	1.323441328	-0.095506498
-0.032174962	1.327524651	-0.095506498
-0.172889988	1.316611552	-0.095506498
-0.311651958	1.290825312	-0.095506498
-0.446893342	1.250457224	-0.095506498
-0.577086381	1.195963309	-0.095506498
-0.700760348	1.127959159	-0.095506498
-0.816518153	1.047212984	-0.095506498
-0.923052138	0.954636936	-0.095506498
-1.019158836	0.851276803	-0.095506498
-1.103752575	0.738300197	-0.095506498
-1.175877741	0.61698336	-0.095506498
-1.234719568	0.488696752	-0.095506498
-1.279613349	0.354889567	-0.095506498
-1.310051939	0.217073361	-0.095506498
-1.325691489	0.07680498	-0.095506498
-1.326355324	-0.064331032	-0.095506498
-1.312035947	-0.204740326	-0.095506498
-1.282895117	-0.342836765	-0.095506498
-1.239262023	-0.477060337	-0.095506498
-1.181629569	-0.605894784	-0.095506498
-1.110648801	-0.727884722	-0.095506498
-1.027121556	-0.841652088	-0.095506498
-0.931991401	-0.945911707	-0.095506498
-0.826332977	-1.039485805	-0.095506498
-0.711339858	-1.121317321	-0.095506498
-0.588311067	-1.190481842	-0.095506498
-0.458636403	-1.246198049	-0.095506498
-0.323780738	-1.287836543	-0.095506498
-0.185267475	-1.314926953	-0.095506498
-0.044661332	-1.32716325	-0.095506498
0.096449329	-1.324407209	-0.095506498
0.236470447	-1.306689962	-0.095506498
0.37382027	-1.274211652	-0.095506498
0.506947221	-1.227339172	-0.095506498
0.634347427	-1.166602019	-0.095506498
0.754581708	-1.092686311	-0.095506498
0.866291835	-1.006427039	-0.095506498
0.96821587	-0.908798634	-0.095506498
1.059202426	-0.800903958	-0.095506498
1.138223669	-0.683961846	-0.095506498
1.204386935	-0.559293339	-0.095506498
1.256944808	-0.428306758	-0.095506498
1.295303565	-0.292481797	-0.095506498
1.319029888	-0.153352806	-0.095506498
1.327855749	-0.012491461	-0.095506498
1.30834649	0	-0.133057043
1.300734115	0.140930126	-0.133057043
1.277985572	0.280220299	-0.133057043
1.240365578	0.416249652	-0.133057043
1.188311902	0.547435259	-0.133057043
1.122430275	0.672250561	-0.133057043
1.043487336	0.78924313	-0.133057043
0.952401717	0.897051564	-0.133057043
0.850233346	0.994421337	-0.133057043
0.738171121	1.080219392	-0.133057043
0.617519067	1.153447329	-0.133057043
0.48968117	1.21325302	-0.133057043
0.356145032	1.258940529	-0.133057043
0.218464564	1.289978206	-0.133057043
0.078241904	1.306004879	-0.133057043
-0.062891228	1.306834049	-0.133057043
-0.203292519	1.292456069	-0.133057043
-0.341328168	1.26303825	-0.133057043
-0.475391907	1.218922916	-0.133057043
-0.603923683	1.16062342	-0.133057043
-0.72542782	1.088818175	-0.133057043
-0.838490418	1.004342749	-0.133057043
-0.94179581	0.908180154	-0.133057043
-1.034141867	0.801449398	-0.133057043
-1.114453994	0.685392468	-0.133057043
-1.181797626	0.561359876	-0.133057043
-1.235389111	0.430794944	-0.133057043
-1.274604824	0.295217009	-0.133057043
-1.298988426	0.156203742	-0.133057043
-1.308256174	0.015372788	-0.133057043
-1.302300223	-0.125637053	-0.133057043
-1.281189879	-0.265184902	-0.133057043
-1.245170797	-0.40164689	-0.133057043
-1.194662117	-0.533435061	-0.133057043
-1.130251591	-0.659015843	-0.133057043
-1.052688739	-0.776927897	-0.133057043
-0.962876133	-0.885799126	-0.133057043
-0.861858889	-0.984362634	-0.133057043
-0.750812508	-1.071471473	-0.133057043
-0.631029196	-1.14611199	-0.133057043
-0.503902827	-1.20741562	-0.133057043
-0.370912726	-1.254668996	-0.133057043
-0.233606448	-1.287322247	-0.133057043
-0.093581777	-1.304995398	-0.133057043
0.04753187	-1.307482795	-0.133057043
0.188092406	-1.294755493	-0.133057043
0.32646418	-1.266961593	-0.133057043
0.46103701	-1.224424524	-0.133057043
0.59024492	-1.167639274	-0.133057043
0.712584365	-1.097266632	-0.133057043
0.826631726	-1.014125499	-0.133057043
0.931059876	-0.919183358	-0.133057043
1.024653622	-0.813545016	-0.133057043
1.106323849	-0.698439748	-0.133057043
1.175120188	-0.575206991	-0.133057043
1.230242083	-0.445280761	-0.133057043
1.2710481	-0.310172961	-0.133057043
1.297063395	-0.171455791	-0.133057043
1.307985237	-0.030743453	-0.133057043
1.282404345	0	-0.169959347
1.274638285	0.140918936	-0.169959347
1.251434165	0.280131102	-0.169959347
1.213073027	0.415950399	-0.169959347
1.160019491	0.546731822	-0.169959347
1.092916125	0.670891383	-0.169959347
1.012575667	0.786925297	-0.169959347
0.919971178	0.893428193	-0.169959347
0.816224257	0.989110139	-0.169959347
0.702591457	1.072812261	-0.169959347
0.580449069	1.143520784	-0.169959347
0.451276444	1.200379305	-0.169959347
0.316638086	1.24269917	-0.169959347
0.178164697	1.269967812	-0.169959347
0.037533428	1.281854963	-0.169959347
-0.103552436	1.278216647	-0.169959347
-0.243384102	1.259096931	-0.169959347
-0.380267968	1.224727389	-0.169959347
-0.512546136	1.175524293	-0.169959347
-0.638616489	1.112083578	-0.169959347
-0.7569521	1.03517362	-0.169959347
-0.86611972	0.94572593	-0.169959347
-0.964797141	0.844823875	-0.169959347
-1.051789212	0.733689551	-0.169959347
-1.126042308	0.613668986	-0.169959347
-1.186657097	0.486215835	-0.169959347
-1.232899429	0.352873775	-0.169959347
-1.264209231	0.215257807	-0.169959347
-1.280207287	0.075034697	-0.169959347
-1.280699833	-0.066097212	-0.169959347
-1.265680903	-0.20642857	-0.169959347
-1.235332403	-0.344259723	-0.169959347
-1.190021905	-0.4779213	-0.169959347
-1.130298197	-0.605794429	-0.169959347
-1.056884636	-0.726330346	-0.169959347
-0.970670385	-0.838069154	-0.169959347
-0.872699648	-0.939657505	-0.169959347
-0.764159019	-1.02986499	-0.169959347
-0.646363112	-1.107599039	-0.169959347
-0.520738636	-1.171918161	-0.169959347
-0.388807121	-1.222043341	-0.169959347
-0.252166484	-1.257367476	-0.169959347
-0.112471677	-1.27746273	-0.169959347
0.028585356	-1.282085715	-0.169959347
0.16929617	-1.27118044	-0.169959347
0.307956517	-1.244878985	-0.169959347
0.442886981	-1.203499907	-0.169959347
0.572453323	-1.147544377	-0.169959347
0.695086272	-1.077690113	-0.169959347
0.809300531	-0.994783169	-0.169959347
0.913712771	-0.899827693	-0.169959347
1.007058379	-0.793973756	-0.169959347
1.088206779	-0.678503434	-0.169959347
1.156175126	-0.554815269	-0.169959347
1.210140205	-0.424407337	-0.169959347
1.249448407	-0.288859104	-0.169959347
1.273623642	-0.14981229	-0.169959347
1.282373106	-0.008950993	-0.169959347
1.250214454	0	-0.206033626
1.242248858	0.140904073	-0.206033626
1.218453571	0.280012638	-0.206033626
1.179131812	0.415553066	-0.206033626
1.12478465	0.545798199	-0.206033626
1.056104617	0.66908835	-0.206033626
0.973966887	0.783852464	-0.206033626
0.879418122	0.888628127	-0.206033626
0.773663136	0.982080208	-0.206033626
0.658049539	1.063017867	-0.206033626
0.534050569	1.130409736	-0.206033626
0.403246316	1.183397055	-0.206033626
0.267303589	1.221304619	-0.206033626
0.127954674	1.243649381	-0.206033626
-0.013024738	1.250146607	-0.206033626
-0.153838178	1.240713503	-0.206033626
-0.292691294	1.215470275	-0.206033626
-0.427814713	1.174738589	-0.206033626
-0.557486588	1.119037482	-0.206033626
-0.68005454	1.049076739	-0.206033626
-0.793956715	0.965747854	-0.206033626
-0.897741683	0.870112667	-0.206033626
-0.990086936	0.763389836	-0.206033626
-1.069815741	0.646939304	-0.206033626
-1.13591213	0.522244975	-0.206033626
-1.187533855	0.390895799	-0.206033626
-1.22402311	0.254565528	-0.206033626
-1.244914922	0.114991388	-0.206033626
-1.249943071	-0.026048062	-0.206033626
-1.239043485	-0.166755586	-0.206033626
-1.212355054	-0.305338183	-0.206033626
-1.170217863	-0.440029926	-0.206033626
-1.113168856	-0.56911447	-0.206033626
-1.041934997	-0.690946919	-0.206033626
-0.957424	-0.803974792	-0.206033626
-0.860712772	-0.9067578	-0.206033626
-0.753033679	-0.997986203	-0.206033626
-0.635758852	-1.076497498	-0.206033626
-0.510382698	-1.141291235	-0.206033626
-0.378502855	-1.191541762	-0.206033626
-0.241799837	-1.226608748	-0.206033626
-0.10201562	-1.246045342	-0.206033626
0.039068558	-1.249603869	-0.206033626
0.179654895	-1.237238983	-0.206033626
0.317951931	-1.209108246	-0.206033626
0.452197379	-1.165570123	-0.206033626
0.580680581	-1.10717941	-0.206033626
0.701764304	-1.034680165	-0.206033626
0.813905607	-0.94899623	-0.206033626
0.915675499	-0.851219456	-0.206033626
1.00577715	-0.74259579	-0.206033626
1.083062415	-0.624509397	-0.206033626
1.146546467	-0.498465025	-0.206033626
1.195420342	-0.366068828	-0.206033626
1.229061253	-0.229007902	-0.206033626
1.24704052	-0.08902878	-0.206033626
1.211933645	0	-0.241104131
1.203717003	0.140884834	-0.241104131
1.179178491	0.279859331	-0.241104131
1.138650841	0.41503906	-0.241104131
1.082683589	0.544591044	-0.241104131
1.012035627	0.666758613	-0.241104131
0.92766491	0.779885231	-0.241104131
0.830715468	0.88243695	-0.241104131
0.722501891	0.973023215	-0.241104131
0.604491508	1.050415716	-0.241104131
0.478284488	1.113565044	-0.241104131
0.345592142	1.161614924	-0.241104131
0.20821372	1.193913819	-0.241104131
0.068012012	1.210023771	-0.241104131
-0.07311191	1.209726336	-0.241104131
-0.213244465	1.193025548	-0.241104131
-0.350485521	1.160147861	-0.241104131
-0.482974148	1.111539083	-0.241104131
-0.608913859	1.047858326	-0.241104131
-0.726596968	0.969969075	-0.241104131
-0.834427743	0.878927472	-0.241104131
-0.930944048	0.775968002	-0.241104131
-1.014837163	0.662486749	-0.241104131
-1.084969535	0.540022469	-0.241104131
-1.140390201	0.410235723	-0.241104131
-1.180347681	0.274886362	-0.241104131
-1.204300168	0.135809664	-0.241104131
-1.211922878	-0.005108553	-0.241104131
-1.20311245	-0.1459575	-0.241104131
-1.17798835	-0.284827328	-0.241104131
-1.136891249	-0.419835024	-0.241104131
-1.080378406	-0.549149942	-0.241104131
-1.00921611	-0.671018631	-0.241104131
-0.92436929	-0.783788603	-0.241104131
-0.826988432	-0.885930749	-0.241104131
-0.718393977	-0.976060067	-0.241104131
-0.600058417	-1.052954441	-0.241104131
-0.473586331	-1.11557122	-0.241104131
-0.340692623	-1.163061347	-0.241104131
-0.203179275	-1.194780876	-0.241104131
-0.062910905	-1.210299706	-0.241104131
0.078210508	-1.209407407	-0.241104131
0.218271422	-1.192116079	-0.241104131
0.355372672	-1.158660185	-0.241104131
0.487655226	-1.109493371	-0.241104131
0.61332539	-1.045282318	-0.241104131
0.730679134	-0.9668977	-0.241104131
0.838125192	-0.875402377	-0.241104131
0.934206644	-0.772036985	-0.241104131
1.017620667	-0.658203113	-0.241104131
1.087236204	-0.535444298	-0.241104131
1.142109299	-0.405425096	-0.241104131
1.181495898	-0.269908509	-0.241104131
1.204861935	-0.130732082	-0.241104131
1.167748416	0	-0.275
1.159221617	0.140860235	-0.275
1.133765744	0.279663371	-0.275
1.09175255	0.414382351	-0.275
1.033795589	0.543049762	-0.275
0.960741254	0.663786567	-0.275
0.873656418	0.774829547	-0.275
0.773812854	0.874557049	-0.275
0.662668659	0.961512669	-0.275
0.541846964	1.034426523	-0.275
0.413112229	1.092233789	-0.275
0.278344474	1.13409026	-0.275
0.139511823	1.159384671	-0.275
-0.001358234	1.167747626	-0.275
-0.142208455	1.159056996	-0.275
-0.280981889	1.133439695	-0.275
-0.415651912	1.091269835	-0.275
-0.544251825	1.033163257	-0.275
-0.664903577	0.95996854	-0.275
-0.775845192	0.872754606	-0.275
-0.875456496	0.772795114	-0.275
-0.962282783	0.661549854	-0.275
-1.035056057	0.540643433	-0.275
-1.09271355	0.411841548	-0.275
-1.134413241	0.2770252	-0.275
-1.159546156	0.138163223	-0.275
-1.167745257	-0.002716466	-0.275
-1.158890806	-0.143556484	-0.275
-1.133112112	-0.282300028	-0.275
-1.090785643	-0.41692091	-0.275
-1.032529527	-0.545453151	-0.275
-0.959194526	-0.666019688	-0.275
-0.871851613	-0.776859787	-0.275
-0.771776328	-0.876354758	-0.275
-0.660430154	-0.963051595	-0.275
-0.539439171	-1.035684191	-0.275
-0.410570311	-1.093191833	-0.275
-0.275705552	-1.134734688	-0.275
-0.136814436	-1.159706072	-0.275
0.004074694	-1.167741307	-0.275
0.144904318	-1.158723048	-0.275
0.283617784	-1.132782996	-0.275
0.418189345	-1.090299975	-0.275
0.54665374	-1.0318944	-0.275
0.667134897	-0.958419215	-0.275
0.777873331	-0.870947441	-0.275
0.877251836	-0.770756499	-0.275
0.963819105	-0.659309561	-0.275
1.036310924	-0.538234179	-0.275
1.093668637	-0.409298518	-0.275
1.1350546	-0.27438553	-0.275
1.15986442	-0.135465464	-0.275
1.117874035	0	-0.307556097
1.1089678	0.140828893	-0.307556097
1.082391008	0.279413785	-0.307556097
1.038567141	0.413546431	-0.307556097
0.978194499	0.54108953	-0.307556097
0.902235073	0.66001078	-0.307556097
0.81189922	0.768415262	-0.307556097
0.708626371	0.864575632	-0.307556097
0.594062102	0.946959649	-0.307556097
0.470031905	1.014254586	-0.307556097
0.338512109	1.06538815	-0.307556097
0.201598381	1.099545565	-0.307556097
0.061472336	1.116182561	-0.307556097
-0.079633224	1.115034039	-0.307556097
-0.219469889	1.096118299	-0.307556097
-0.355809468	1.05973675	-0.307556097
-0.486479496	1.006469104	-0.307556097
-0.609397843	0.937164141	-0.307556097
-0.7226059	0.852926181	-0.307556097
-0.824299784	0.755097493	-0.307556097
-0.912859079	0.645236903	-0.307556097
-0.98687266	0.525094954	-0.307556097
-1.045161178	0.396586017	-0.307556097
-1.08679585	0.261757785	-0.307556097
-1.111113259	0.122758642	-0.307556097
-1.117725925	-0.018196566	-0.307556097
-1.10652848	-0.158861826	-0.307556097
-1.077699349	-0.296995744	-0.307556097
-1.031697899	-0.430397261	-0.307556097
-0.969257131	-0.556940726	-0.307556097
-0.891371989	-0.674609765	-0.307556097
-0.799283514	-0.781529412	-0.307556097
-0.694459066	-0.875995983	-0.307556097
-0.578568942	-0.956504227	-0.307556097
-0.453459764	-1.021771305	-0.307556097
-0.321125049	-1.070757237	-0.307556097
-0.183673452	-1.102681468	-0.307556097
-0.043295159	-1.117035311	-0.307556097
0.09777301	-1.113590049	-0.307556097
0.23728324	-1.092400577	-0.307556097
0.373012543	-1.053804536	-0.307556097
0.502798176	-0.998416923	-0.307556097
0.624572103	-0.927120298	-0.307556097
0.73639395	-0.841050717	-0.307556097
0.83648192	-0.741579635	-0.307556097
0.923241189	-0.630292046	-0.307556097
0.995289314	-0.508961235	-0.307556097
1.051478263	-0.379520514	-0.307556097
1.090912707	-0.244032424	-0.307556097
1.112964289	-0.104655863	-0.307556097
1.062553483	0	-0.338613811
1.053184887	0.140788843	-0.338613811
1.025244306	0.279094999	-0.338613811
0.979224446	0.412479561	-0.338613811
0.915936829	0.538590411	-0.338613811
0.836497474	0.655203694	-0.338613811
0.742307225	0.760263039	-0.338613811
0.635027044	0.851915816	-0.338613811
0.516548722	0.928545811	-0.338613811
0.388961519	0.98880172	-0.338613811
0.254515324	1.031620984	-0.338613811
0.115580975	1.056248523	-0.338613811
-0.025391542	1.062250053	-0.338613811
-0.165916302	1.049519741	-0.338613811
-0.303515274	1.018282075	-0.338613811
-0.435762022	0.969087904	-0.338613811
-0.560324492	0.902804724	-0.338613811
-0.675006134	0.820601379	-0.338613811
-0.77778464	0.723927455	-0.338613811
-0.8668476	0.614487708	-0.338613811
-0.940624468	0.494212014	-0.338613811
-0.997814255	0.365221328	-0.338613811
-1.037408468	0.229790286	-0.338613811
-1.058708899	0.090307095	-0.338613811
-1.061339934	-0.050768582	-0.338613811
-1.045255177	-0.190948999	-0.338613811
-1.010738267	-0.3277622	-0.338613811
-0.958397881	-0.458795604	-0.338613811
-0.889156995	-0.581738552	-0.338613811
-0.80423661	-0.694423055	-0.338613811
-0.705134224	-0.794862021	-0.338613811
-0.593597417	-0.881284296	-0.338613811
-0.471593045	-0.952165902	-0.338613811
-0.341272546	-1.006256903	-0.338613811
-0.204934006	-1.042603452	-0.338613811
-0.064981637	-1.06056461	-0.338613811
0.076116626	-1.059823648	-0.338613811
0.21587264	-1.040393631	-0.338613811
0.35182193	-1.002617192	-0.338613811
0.481567152	-0.947160485	-0.338613811
0.602820362	-0.875001438	-0.338613811
0.713443367	-0.787412514	-0.338613811
0.811485428	-0.685938266	-0.338613811
0.895217661	-0.572368102	-0.338613811
0.963163521	-0.448704732	-0.338613811
1.014124843	-0.317128851	-0.338613811
1.047202969	-0.179960682	-0.338613811
1.061814595	-0.039619066	-0.338613811
1.002056278	0	-0.368021833
0.99212389	0.140737241	-0.368021833
0.962523626	0.278684506	-0.368021833
0.913842282	0.411107125	-0.368021833
0.847044917	0.535379952	-0.368021833
0.763455723	0.6490394	-0.368021833
0.664731774	0.749832283	-0.368021833
0.552830174	0.835760482	-0.368021833
0.429969262	0.905120555	-0.368021833
0.298584633	0.956537507	-0.368021833
0.16128086	0.988992047	-0.368021833
0.020779853	1.001840797	-0.368021833
-0.120133095	0.994829043	-0.368021833
-0.258664522	0.968095785	-0.368021833
-0.392068181	0.922170985	-0.368021833
-0.517699475	0.857965056	-0.368021833
-0.633067889	0.776750818	-0.368021833
-0.735886357	0.680138261	-0.368021833
-0.824116605	0.570042635	-0.368021833
-0.896009555	0.448646477	-0.368021833
-0.950140001	0.318356346	-0.368021833
-0.98543486	0.181755115	-0.368021833
-1.001194446	0.041550768	-0.368021833
-0.997106341	-0.099477282	-0.368021833
-0.973251588	-0.238533293	-0.368021833
-0.930103083	-0.372860617	-0.368021833
-0.868516204	-0.499796347	-0.368021833
-0.789711848	-0.616824109	-0.368021833
-0.695252235	-0.721623942	-0.368021833
-0.587009934	-0.812118293	-0.368021833
-0.46713074	-0.886513201	-0.368021833
-0.337991141	-0.943333861	-0.368021833
-0.202151201	-0.981453859	-0.368021833
-0.062303814	-1.000117503	-0.368021833
0.078778686	-0.998954806	-0.368021833
0.218299475	-0.977988816	-0.368021833
0.353492693	-0.937635164	-0.368021833
0.481678268	-0.878693821	-0.368021833
0.600315047	-0.802333241	-0.368021833
0.707051172	-0.710067197	-0.368021833
0.799770707	-0.603724772	-0.368021833
0.876635578	-0.4854141	-0.368021833
0.936122014	-0.357480573	-0.368021833
0.977050756	-0.222460347	-0.368021833
0.998610431	-0.083030064	-0.368021833
0.936677156	0	-0.39563689
0.926054038	0.140669873	-0.39563689
0.894425644	0.278148992	-0.39563689
0.842509386	0.409318981	-0.39563689
0.771482859	0.531204567	-0.39563689
0.682957126	0.641041074	-0.39563689
0.578940176	0.736337128	-0.39563689
0.461791382	0.814931171	-0.39563689
0.334167976	0.875040489	-0.39563689
0.198964786	0.915301649	-0.39563689
0.059248565	0.934801424	-0.39563689
-0.081811566	0.933097509	-0.39563689
-0.221016	0.910228555	-0.39563689
-0.355207226	0.866713286	-0.39563689
-0.481341443	0.803538742	-0.39563689
-0.596557603	0.722137881	-0.39563689
-0.69824231	0.624357085	-0.39563689
-0.784089094	0.512414272	-0.39563689
-0.85215073	0.388848592	-0.39563689
-0.900883406	0.25646283	-0.39563689
-0.92918174	0.118259834	-0.39563689
-0.936403853	-0.022625597	-0.39563689
-0.92238593	-0.162997822	-0.39563689
-0.887445933	-0.299672839	-0.39563689
-0.83237639	-0.429550509	-0.39563689
-0.758426419	-0.549684874	-0.39563689
-0.667273396	-0.657350978	-0.39563689
-0.560984904	-0.75010668	-0.39563689
-0.441971839	-0.825848042	-0.39563689
-0.31293372	-0.882857056	-0.39563689
-0.176797464	-0.919840612	-0.39563689
-0.036650989	-0.935959828	-0.39563689
0.104326825	-0.930849079	-0.39563689
0.242938239	-0.90462429	-0.39563689
0.376039192	-0.857880306	-0.39563689
0.500610614	-0.791677401	-0.39563689
0.613826905	-0.707517226	-0.39563689
0.71312003	-0.607308749	-0.39563689
0.796237768	-0.493324954	-0.39563689
0.861294795	-0.368151287	-0.39563689
0.906815451	-0.234627006	-0.39563689
0.931767211	-0.095780784	-0.39563689
0.866734636	0	-0.421324444
0.85525792	0.140580294	-0.421324444
0.821131707	0.277437649	-0.421324444
0.765259749	0.406947719	-0.421324444
0.689121683	0.525680735	-0.421324444
0.594733848	0.630492331	-0.421324444
0.484595884	0.718606818	-0.421324444
0.361624535	0.787690691	-0.421324444
0.22907641	0.835914426	-0.421324444
0.090461734	0.86200093	-0.421324444
-0.050548608	0.865259364	-0.421324444
-0.190220289	0.845603436	-0.421324444
-0.324854433	0.803553686	-0.421324444
-0.45088557	0.740223704	-0.421324444
-0.564976061	0.657290636	-0.421324444
-0.664104488	0.556950768	-0.421324444
-0.745645667	0.441861368	-0.421324444
-0.807440172	0.315070306	-0.421324444
-0.84785152	0.179935348	-0.421324444
-0.865809512	0.040035224	-0.421324444
-0.860838571	-0.100925138	-0.421324444
-0.833070343	-0.239212736	-0.421324444
-0.783240203	-0.371165345	-0.421324444
-0.712667786	-0.493288512	-0.421324444
-0.623222036	-0.602348092	-0.421324444
-0.517271713	-0.695455896	-0.421324444
-0.397622665	-0.770146185	-0.421324444
-0.267443513	-0.82444096	-0.421324444
-0.130181749	-0.856902353	-0.421324444
0.010527574	-0.866670698	-0.421324444
0.150958099	-0.853487306	-0.421324444
0.287390852	-0.817701307	-0.421324444
0.416212734	-0.760260409	-0.421324444
0.534012199	-0.682685799	-0.421324444
0.637669606	-0.587031859	-0.421324444
0.72443983	-0.475831759	-0.421324444
0.792024966	-0.352030372	-0.421324444
0.838635181	-0.218906287	-0.421324444
0.863036113	-0.079984984	-0.421324444
0.792569473	0	-0.444959347
0.780024256	0.140458282	-0.444959347
0.742785751	0.276470065	-0.444959347
0.68203282	0.403729614	-0.444959347
0.599688724	0.518208263	-0.444959347
0.498360235	0.616281953	-0.444959347
0.381255117	0.694845957	-0.444959347
0.252080577	0.75141317	-0.444959347
0.114925902	0.784192837	-0.444959347
-0.025866991	0.792147251	-0.444959347
-0.16584101	0.775024598	-0.444959347
-0.300564988	0.733366932	-0.444959347
-0.425773956	0.668493012	-0.444959347
-0.537504166	0.582456557	-0.444959347
-0.632218565	0.477981229	-0.444959347
-0.706918771	0.358374413	-0.444959347
-0.759239995	0.22742251	-0.444959347
-0.7875259	0.089271075	-0.444959347
-0.790881037	-0.051706421	-0.444959347
-0.769199191	-0.191047043	-0.444959347
-0.723166747	-0.324339674	-0.444959347
-0.654240958	-0.447364659	-0.444959347
-0.564603811	-0.556227386	-0.444959347
-0.457092959	-0.64748158	-0.444959347
-0.335111878	-0.718238399	-0.444959347
-0.202522136	-0.76625789	-0.444959347
-0.063521134	-0.790019895	-0.444959347
0.077490761	-0.788772179	-0.444959347
0.216049525	-0.762554242	-0.444959347
0.347768793	-0.712196065	-0.444959347
0.468478717	-0.639291843	-0.444959347
0.574357974	-0.54614951	-0.444959347
0.662054736	-0.435717679	-0.444959347
0.72879278	-0.3114923	-0.444959347
0.772459375	-0.177405984	-0.444959347
0.791672163	-0.037703514	-0.444959347
0.71454299	0	-0.466426453
0.700636344	0.140286843	-0.466426453
0.659457716	0.275113078	-0.466426453
0.592609967	0.39923065	-0.466426453
0.502695118	0.507808333	-0.466426453
0.393213069	0.596619784	-0.466426453
0.268425362	0.662208056	-0.466426453
0.133189308	0.702020151	-0.466426453
-0.007231084	0.7145064	-0.466426453
-0.14737001	0.699180781	-0.466426453
-0.281772619	0.656639837	-0.466426453
-0.405207344	0.588539457	-0.466426453
-0.51286954	0.497530421	-0.466426453
-0.6005685	0.387155217	-0.466426453
-0.664890577	0.261710155	-0.466426453
-0.703332062	0.126078133	-0.466426453
-0.714396635	-0.014461428	-0.466426453
-0.697653612	-0.154438084	-0.466426453
-0.65375471	-0.288403302	-0.466426453
-0.584408673	-0.411142539	-0.466426453
-0.492314769	-0.517878222	-0.466426453
-0.381057715	-0.604455708	-0.466426453
-0.254968146	-0.667505003	-0.466426453
-0.118954046	-0.704571941	-0.466426453
0.021690291	-0.714213705	-0.466426453
0.161490342	-0.696054994	-0.466426453
0.295004448	-0.650802628	-0.466426453
0.417035627	-0.580218037	-0.466426453
0.522833866	-0.487048697	-0.466426453
0.608281011	-0.374921187	-0.466426453
0.670051067	-0.248200024	-0.466426453
0.705739661	-0.111817776	-0.466426453
0.633035326	0	-0.485621176
0.617352109	0.140036058	-0.485621176
0.571079549	0.273133433	-0.485621176
0.496510419	0.392697248	-0.485621176
0.397339562	0.492803203	-0.485621176
0.278480823	0.568491122	-0.485621176
0.145823564	0.616010724	-0.485621176
0.005940855	0.633007449	-0.485621176
-0.134236219	0.618639121	-0.485621176
-0.267761988	0.573617679	-0.485621176
-0.388020347	0.500173904	-0.485621176
-0.489052583	0.401946881	-0.485621176
-0.565852624	0.283803685	-0.485621176
-0.614615084	0.151598226	-0.485621176
-0.63292382	0.011881186	-0.485621176
-0.619871646	-0.128424557	-0.485621176
-0.576105288	-0.262366959	-0.485621176
-0.503793338	-0.383309271	-0.485621176
-0.406518798	-0.48525889	-0.485621176
-0.289101552	-0.563164289	-0.485621176
-0.157359536	-0.613165313	-0.485621176
-0.017820472	-0.632784446	-0.485621176
0.122601584	-0.621049576	-0.485621176
0.256948822	-0.578542157	-0.485621176
0.378564435	-0.507368399	-0.485621176
0.481422459	-0.411054912	-0.485621176
0.560426354	-0.294373956	-0.485621176
0.611661536	-0.163106987	-0.485621176
0.63258934	-0.023758187	-0.485621176
0.548443578	0	-0.502450002
0.530366332	0.139649244	-0.502450002
0.477326285	0.270092532	-0.502450002
0.39281994	0.382730784	-0.502450002
0.282418124	0.470138662	-0.502450002
0.153398744	0.526554065	-0.502450002
0.014267014	0.548257978	-0.502450002
-0.125805226	0.533819635	-0.502450002
-0.257584136	0.484190841	-0.502450002
-0.372382587	0.402643225	-0.502450002
-0.462632838	0.294552568	-0.502450002
-0.522385413	0.167044419	-0.502450002
-0.547701304	0.028524371	-0.502450002
-0.536911636	-0.111876061	-0.502450002
-0.490727686	-0.2449014	-0.502450002
-0.412193992	-0.361782352	-0.502450002
-0.306487651	-0.454813893	-0.502450002
-0.180577035	-0.517863198	-0.502450002
-0.042762422	-0.546773932	-0.502450002
0.097871174	-0.539640242	-0.502450002
0.232052909	-0.496932395	-0.502450002
0.350937255	-0.421465777	-0.502450002
0.446687119	-0.318215297	-0.502450002
0.512990481	-0.193987433	-0.502450002
0.545476491	-0.056971531	-0.502450002
0.461179867	0	-0.516830941
0.439731276	0.139008182	-0.516830941
0.377380569	0.265086356	-0.516830941
0.279927369	0.366507214	-0.516830941
0.156436399	0.433836977	-0.516830941
0.018394316	0.460812889	-0.516830941
-0.121358736	0.444925754	-0.516830941
-0.249823465	0.387653333	-0.516830941
-0.355050572	0.294322885	-0.516830941
-0.427252238	0.173615652	-0.516830941
-0.45971254	0.036759358	-0.516830941
