# .PCD v.5 - Point Cloud Data file format
VERSION .5
FIELDS x y z
SIZE 4 4 4
TYPE F F F
COUNT 1 1 1
WIDTH 1312
HEIGHT 1
POINTS 1312
DATA ascii
-0.85130301 -0.55697226 0.369396885
-0.769997932 -0.664859457 0.369396885
-0.67511462 -0.761022446 0.369396885
-0.568326258 -0.843765475 0.369396885
-0.451515965 -0.911629446 0.369396885
-0.326743586 -0.963417636 0.369396885
-0.196209373 -0.998216808 0.369396885
-0.062215181 -1.015413307 0.369396885
0.072876121 -1.01470389 0.369396885
0.206682317 -0.996101066 0.369396885
0.336843853 -0.959932879 0.369396885
0.461065445 -0.906837123 0.369396885
0.577156555 -0.837750096 0.369396885
0.683070019 -0.753890086 0.369396885
0.776938147 -0.65673589 0.369396885
0.857105656 -0.548000737 0.369396885
0.922158864 -0.429602074 0.369396885
0.970950615 -0.303627759 0.369396885
1.00262051 -0.172299236 0.369396885
1.016610077 -0.037932368 0.369396885
1.070282904 0 0.335515742
1.061755833 0.1348334 0.335515742
1.036310492 0.267518332 0.335515742
0.994352334 0.395940563 0.335515742
0.93654993 0.518053784 0.335515742
0.863824317 0.631912212 0.335515742
0.777334322 0.735701602 0.335515742
0.678458097 0.827768147 0.335515742
0.56877116 0.906644838 0.335515742
0.450021288 0.971074835 0.335515742
0.32410067 1.020031495 0.335515742
0.193015755 1.052734731 0.335515742
0.058855281 1.068663441 0.335515742
-0.076243007 1.067563815 0.335515742
-0.210126421 1.049453373 0.335515742
-0.34066163 1.014620692 0.335515742
-0.465768656 0.963620804 0.335515742
-0.583454014 0.897266353 0.335515742
-0.691842477 0.816614647 0.335515742
-0.789206958 0.722950809 0.335515742
-0.873996027 0.617767301 0.335515742
-0.944858637 0.502740143 0.335515742
-1.000665644 0.379702204 0.335515742
-1.040527807 0.250613999 0.335515742
-1.063809954 0.117532452 0.335515742
-1.070141099 -0.017421885 0.335515742
-1.059420363 -0.152098618 0.335515742
-1.03181857 -0.284351776 0.335515742
-0.987775536 -0.412074004 0.335515742
-0.927993052 -0.533230148 0.335515742
-0.853423705 -0.645889676 0.335515742
-0.765255703 -0.748257444 0.335515742
-0.664893935 -0.838702301 0.335515742
-0.553937589 -0.915783076 0.335515742
-0.43415467 -0.978271546 0.335515742
-0.307453827 -1.025172004 0.335515742
-0.175853942 -1.055737129 0.335515742
-0.041451959 -1.069479887 0.335515742
0.09361053 -1.066181299 0.335515742
0.227181407 -1.045893925 0.335515742
0.35713232 -1.008941029 0.335515742
0.481392603 -0.955911427 0.335515742
0.597982262 -0.887650105 0.335515742
0.705043529 -0.805244756 0.335515742
0.800870466 -0.710008445 0.335515742
0.883936142 -0.603458691 0.335515742
0.952916969 -0.487293283 0.335515742
1.006713792 -0.363363228 0.335515742
1.044469398 -0.233643258 0.335515742
1.06558218 -0.10020036 0.335515742
1.118033989 0 0.3
1.1098702 0.134863407 0.3
1.085498057 0.267757292 0.3
1.045273487 0.396740895 0.3
0.989783921 0.519930563 0.3
0.91983972 0.635527253 0.3
0.836462338 0.741842812 0.3
0.740869402 0.837324626 0.3
0.634456937 0.920578294 0.3
0.518778971 0.990387994 0.3
0.395524846 1.045734238 0.3
0.266494544 1.085808757 0.3
0.133572401 1.110026312 0.3
-0.00130041 1.118033232 0.3
-0.13615423 1.109712587 0.3
-0.269019678 1.085185889 0.3
-0.397956408 1.044811322 0.3
-0.52108145 0.989178509 0.3
-0.636596709 0.919099902 0.3
-0.742815218 0.835598918 0.3
-0.838185781 0.739894991 0.3
-0.921315622 0.633385763 0.3
-0.990990727 0.517626679 0.3
-1.046193574 0.394308262 0.3
-1.086117989 0.265231436 0.3
-1.110180922 0.132281215 0.3
-1.118030964 -0.002600818 0.3
-1.109553472 -0.137444869 0.3
-1.084872252 -0.270281699 0.3
-1.044347743 -0.399171381 0.3
-0.988571758 -0.522231633 0.3
-0.918358841 -0.637665303 0.3
-0.834734368 -0.743786619 0.3
-0.738919578 -0.839045802 0.3
-0.632313732 -0.922051703 0.3
-0.516473685 -0.99159212 0.3
-0.393091145 -1.046651495 0.3
-0.263967969 -1.08642575 0.3
-0.13098985 -1.11033403 0.3
0.003901223 -1.118027182 0.3
0.138735322 -1.109392857 0.3
0.271543355 -1.084557148 0.3
0.400385815 -1.043882752 0.3
0.523381109 -0.987963671 0.3
0.638733035 -0.917616537 0.3
0.744757014 -0.833868689 0.3
0.839904688 -0.737943165 0.3
0.922786538 -0.631240846 0.3
0.992192171 -0.515319993 0.3
1.047108 -0.391873496 0.3
1.086732043 -0.262704145 0.3
1.110485637 -0.129698307 0.3
1.160338124 0 0.263022688
1.152471289 0.134886959 0.263022688
1.128977452 0.26794491 0.263022688
1.090175181 0.397369647 0.263022688
1.036590618 0.521406228 0.263022688
0.968950344 0.638372771 0.263022688
0.888171532 0.746683261 0.263022688
0.795349508 0.844869057 0.263022688
0.691742896 0.931598803 0.263022688
0.578756556 1.005696481 0.263022688
0.457922534 1.06615736 0.263022688
0.330879285 1.112161617 0.263022688
0.19934946 1.143085454 0.263022688
0.065116544 1.158509559 0.263022688
-0.069999324 1.158224787 0.263022688
-0.204166032 1.142235 0.263022688
-0.335564339 1.110757011 0.263022688
-0.462412541 1.064217649 0.263022688
-0.582990635 1.003247967 0.263022688
-0.695663633 0.928674686 0.263022688
-0.798903741 0.841508987 0.263022688
-0.891311067 0.7429328 0.263022688
-0.97163261 0.634282772 0.263022688
-1.038779244 0.51703215 0.263022688
-1.091840492 0.392770802 0.263022688
-1.130096866 0.263183655 0.263022688
-1.153029627 0.130027854 0.263022688
-1.160327816 -0.004891067 0.263022688
-1.151892473 -0.139743667 0.263022688
-1.127837979 -0.272701405 0.263022688
-1.0884905 -0.401961432 0.263022688
-1.034383573 -0.525771041 0.263022688
-0.966250861 -0.642451427 0.263022688
-0.885016216 -0.750420455 0.263022688
-0.791781143 -0.848214115 0.263022688
-0.687809867 -0.934506367 0.263022688
-0.574512195 -1.008127125 0.263022688
-0.453424391 -1.068078127 0.263022688
-0.326188353 -1.113546461 0.263022688
-0.194529345 -1.143915599 0.263022688
-0.060232606 -1.158773747 0.263022688
0.074880861 -1.157919436 0.263022688
0.208978976 -1.14136425 0.263022688
0.340243429 -1.109332669 0.263022688
0.466894332 -1.062259029 0.263022688
0.587214355 -1.000781627 0.263022688
0.69957201 -0.925734068 0.263022688
0.802443779 -0.838133966 0.263022688
0.894434765 -0.739169138 0.263022688
0.974297612 -0.630181503 0.263022688
1.040949414 -0.512648886 0.263022688
1.093486403 -0.388164977 0.263022688
1.1311962 -0.258417723 0.263022688
1.153567478 -0.125166439 0.263022688
1.196989209 0 0.224763956
1.189362731 0.134905379 0.224763956
1.166580478 0.26809169 0.224763956
1.128932761 0.397861771 0.224763956
1.076899314 0.522561991 0.224763956
1.011143189 0.640603324 0.224763956
0.932502299 0.750481598 0.224763956
0.841978749 0.850796658 0.224763956
0.740726058 0.940270213 0.224763956
0.630034467 1.017762122 0.224763956
0.511314492 1.082284924 0.224763956
0.386078954 1.13301642 0.224763956
0.255923702 1.169310149 0.224763956
0.122507274 1.19070363 0.224763956
-0.012470237 1.19692425 0.224763956
-0.147288842 1.187892741 0.224763956
-0.28023058 1.16372419 0.224763956
-0.409601404 1.12472657 0.224763956
-0.533752772 1.07139682 0.224763956
-0.651102652 1.004414508 0.224763956
-0.760155681 0.924633174 0.224763956
-0.859522223 0.833069454 0.224763956
-0.947936072 0.730890122 0.224763956
-1.02427059 0.619397227 0.224763956
-1.087553066 0.500011496 0.224763956
-1.136977104 0.374254234 0.224763956
-1.171912906 0.243727937 0.224763956
-1.191915293 0.110095872 0.224763956
-1.196729379 -0.02493912 0.224763956
-1.18629382 -0.159656319 0.224763956
-1.160741593 -0.292339054 0.224763956
-1.120398304 -0.421296579 0.224763956
-1.065778039 -0.544885621 0.224763956
-0.99757681 -0.66153131 0.224763956
-0.916663692 -0.76974726 0.224763956
-0.824069739 -0.868154497 0.224763956
-0.720974857 -0.955499044 0.224763956
-0.608692759 -1.030667886 0.224763956
-0.48865423 -1.092703167 0.224763956
-0.362388893 -1.140814383 0.224763956
-0.231505719 -1.174388466 0.224763956
-0.09767252 -1.192997588 0.224763956
0.037405297 -1.196404618 0.224763956
0.172006466 -1.184566141 0.224763956
0.304415798 -1.157633011 0.224763956
0.432946029 -1.115948432 0.224763956
0.555959329 -1.06004358 0.224763956
0.671888168 -0.990630838 0.224763956
0.779255291 -0.908594716 0.224763956
0.876692545 -0.814980582 0.224763956
0.962958308 -0.710981339 0.224763956
1.036953316 -0.597922225 0.224763956
1.097734668 -0.477243927 0.224763956
1.144527841 -0.35048422 0.224763956
1.176736561 -0.219258373 0.224763956
1.193950398 -0.085238567 0.224763956
1.227808683 0 0.185410197
1.220373247 0.13491961 0.185410197
1.198156993 0.268205111 0.185410197
1.161429 0.398242188 0.185410197
1.110634106 0.523455867 0.185410197
1.046387524 0.642329597 0.185410197
0.969467392 0.753423611 0.185410197
0.880805344 0.855392371 0.185410197
0.781475229 0.94700086 0.185410197
0.672680107 1.02713954 0.185410197
0.555737673 1.094837797 0.185410197
0.432064301 1.149275686 0.185410197
0.303157887 1.189793872 0.185410197
0.170579711 1.21590161 0.185410197
0.035935521 1.22728269 0.185410197
-0.099143909 1.223799268 0.185410197
-0.233022537 1.205493534 0.185410197
-0.364078861 1.172587201 0.185410197
-0.490725565 1.125478824 0.185410197
-0.611428738 1.064738963 0.185410197
-0.72472646 0.991103285 0.185410197
-0.829246498 0.905463642 0.185410197
-0.923722937 0.808857279 0.185410197
-1.007011503 0.702454265 0.185410197
-1.07810343 0.587543322 0.185410197
-1.136137672 0.465516221 0.185410197
-1.180411335 0.337850918 0.185410197
-1.210388188 0.20609366 0.185410197
-1.22570516 0.071840253 0.185410197
-1.226176737 -0.063283262 0.185410197
-1.211797207 -0.197640309 0.185410197
-1.18274073 -0.329603591 0.185410197
-1.139359231 -0.457574808 0.185410197
-1.082178134 -0.580004008 0.185410197
-1.01189 -0.695408362 0.185410197
-0.929346139 -0.802390127 0.185410197
-0.8355463 -0.899653568 0.185410197
-0.73162656 -0.986020658 0.185410197
-0.618845565 -1.060445345 0.185410197
-0.498569286 -1.122026216 0.185410197
-0.372254477 -1.170017421 0.185410197
-0.241431027 -1.203837706 0.185410197
-0.107683432 -1.223077447 0.185410197
0.027368394 -1.227503618 0.185410197
0.162088742 -1.217062612 0.185410197
0.294845917 -1.191880886 0.185410197
0.424032002 -1.152263435 0.185410197
0.54808233 -1.098690094 0.185410197
0.665494439 -1.031809727 0.185410197
0.774846267 -0.952432373 0.185410197
0.874813376 -0.861519425 0.185410197
0.964184991 -0.760171997 0.185410197
1.041878669 -0.64961758 0.185410197
1.106953407 -0.531195178 0.185410197
1.158621037 -0.406339089 0.185410197
1.196255775 -0.276561536 0.185410197
1.2194018 -0.143434348 0.185410197
1.227778774 -0.008569923 0.185410197
1.252646396 0 0.145153137
1.245358102 0.134930323 0.145153137
1.22357803 0.268290511 0.145153137
1.187559628 0.3985287 0.145153137
1.137722028 0.524129356 0.145153137
1.074645172 0.643630911 0.145153137
0.999063062 0.755642767 0.145153137
0.911855221 0.858861485 0.145153137
0.814036453 0.952085945 0.145153137
0.706745041 1.034231329 0.145153137
0.591229495 1.10434174 0.145153137
0.468834026 1.16160133 0.145153137
0.340982908 1.205343789 0.145153137
0.209163896 1.235060103 0.145153137
0.07491092 1.250404474 0.145153137
-0.060213767 1.251198344 0.145153137
-0.194637768 1.237432476 0.145153137
-0.326796841 1.209267058 0.145153137
-0.455153098 1.167029842 0.145153137
-0.578212905 1.111212325 0.145153137
-0.694544259 1.042464036 0.145153137
-0.802793456 0.961584973 0.145153137
-0.901700838 0.869516298 0.145153137
-0.990115457 0.767329379 0.145153137
-1.067008464 0.656213328 0.145153137
-1.131485083 0.537461163 0.145153137
-1.182795023 0.412454758 0.145153137
-1.22034121 0.282648767 0.145153137
-1.243686731 0.149553696 0.145153137
-1.252559925 0.014718324 0.145153137
-1.246857536 -0.12028832 0.145153137
-1.226645921 -0.253895213 0.145153137
-1.192160275 -0.384547621 0.145153137
-1.143801896 -0.510725188 0.145153137
-1.082133512 -0.630959632 0.145153137
-1.007872735 -0.74385183 0.145153137
-0.921883711 -0.848088095 0.145153137
-0.825167063 -0.942455469 0.145153137
-0.718848248 -1.025855833 0.145153137
-0.604164458 -1.097318688 0.145153137
-0.482450226 -1.156012445 0.145153137
-0.355121898 -1.201254108 0.145153137
-0.223661146 -1.232517215 0.145153137
-0.089597731 -1.24943797 0.145153137
0.045508301 -1.251819471 0.145153137
0.180084769 -1.239634007 0.145153137
0.312565656 -1.213023374 0.145153137
0.441409331 -1.172297231 0.145153137
0.565116486 -1.117929493 0.145153137
0.682247588 -1.050552818 0.145153137
0.791439623 -0.970951243 0.145153137
0.891421965 -0.880051064 0.145153137
0.981031154 -0.778910052 0.145153137
1.059224443 -0.668705147 0.145153137
1.125091923 -0.550718766 0.145153137
1.17786712 -0.426323871 0.145153137
1.216935907 -0.296968001 0.145153137
1.241843655 -0.164156422 0.145153137
1.252300522 -0.029434616 0.145153137
1.271381342 0 0.104188907
1.264200243 0.134937992 0.104188907
1.242738069 0.268351653 0.104188907
1.207237266 0.398733871 0.104188907
1.158098872 0.524611781 0.104188907
1.095877979 0.644563397 0.104188907
1.021277467 0.757233684 0.104188907
0.935140064 0.861349858 0.104188907
0.838438823 0.955735767 0.104188907
0.732266133 1.039325179 0.104188907
0.617821377 1.111173822 0.104188907
0.496397383 1.170470058 0.104188907
0.369365821 1.216544043 0.104188907
0.238161707 1.248875302 0.104188907
0.104267192 1.267098603 0.104188907
-0.030805181 1.271008087 0.104188907
-0.165529561 1.260559591 0.104188907
-0.298384033 1.235871145 0.104188907
-0.4278678 1.197221643 0.104188907
-0.552518145 1.145047692 0.104188907
-0.670926953 1.079938675 0.104188907
-0.781756614 1.002630098 0.104188907
-0.883755138 0.91399528 0.104188907
-0.975770296 0.815035488 0.104188907
-1.056762636 0.706868622 0.104188907
-1.125817224 0.590716594 0.104188907
-1.182153985 0.467891518 0.104188907
-1.225136508 0.339780892 0.104188907
-1.254279239 0.20783192 0.104188907
-1.269252968 0.073535169 0.104188907
-1.269888542 -0.061592274 0.104188907
-1.256178782 -0.196023938 0.104188907
-1.228278561 -0.328241212 0.104188907
-1.186503055 -0.456750499 0.104188907
-1.131324181 -0.580100091 0.104188907
-1.063365269 -0.696896564 0.104188907
-0.98339402 -0.805820525 0.104188907
-0.892313831 -0.90564151 0.104188907
-0.791153592 -0.995231888 0.104188907
-0.681056063 -1.073579599 0.104188907
-0.563264964 -1.139799587 0.104188907
-0.439110924 -1.193143794 0.104188907
-0.309996456 -1.233009617 0.104188907
-0.177380103 -1.258946709 0.104188907
-0.04275997 -1.270662072 0.104188907
0.092343202 -1.268023363 0.104188907
0.226403216 -1.251060391 0.104188907
0.35790566 -1.219964777 0.104188907
0.485365011 -1.175087794 0.104188907
0.607341422 -1.116936397 0.104188907
0.722456983 -1.046167494 0.104188907
0.829411286 -0.963580529 0.104188907
0.92699612 -0.870108447 0.104188907
1.014109115 -0.76680716 0.104188907
1.089766196 -0.654843612 0.104188907
1.1531127 -0.535482604 0.104188907
1.203433032 -0.4100725 0.104188907
1.240158746 -0.280030001 0.104188907
1.26287497 -0.146824134 0.104188907
1.27132509 -0.011959663 0.104188907
1.283922246 0 0.062717078
1.27681116 0.134942939 0.062717078
1.25555667 0.268391098 0.062717078
1.220394217 0.398866254 0.062717078
1.171713299 0.524923117 0.062717078
1.110053161 0.645165338 0.062717078
1.036096821 0.758260979 0.062717078
0.950663501 0.862957265 0.062717078
0.854699559 0.958094462 0.062717078
0.749267999 1.042618722 0.062717078
0.6355367 1.11559376 0.062717078
0.514765479 1.176211221 0.062717078
0.388292134 1.223799637 0.062717078
0.257517627 1.257831867 0.062717078
0.123890564 1.27793093 0.062717078
-0.011108851 1.283874187 0.062717078
-0.145985212 1.275595803 0.062717078
-0.279244476 1.253187479 0.062717078
-0.409410513 1.216897434 0.062717078
-0.535041456 1.16712766 0.062717078
-0.654745676 1.104429461 0.062717078
-0.767197193 1.029497353 0.062717078
-0.871150368 0.943161371 0.062717078
-0.965453696 0.846377867 0.062717078
-1.04906257 0.740218926 0.062717078
-1.121050841 0.625860485 0.062717078
-1.180621087 0.504569305 0.062717078
-1.22711344 0.377688946 0.062717078
-1.260012898 0.246624878 0.062717078
-1.278955031 0.112828914 0.062717078
-1.283730012 -0.022216871 0.062717078
-1.27428495 -0.157016557 0.062717078
-1.250724469 -0.290076949 0.062717078
-1.213309551 -0.419924122 0.062717078
-1.162454645 -0.545119741 0.062717078
-1.098723079 -0.664276998 0.062717078
-1.022820815 -0.776075972 0.062717078
-0.935588632 -0.879278253 0.062717078
-0.837992813 -0.972740654 0.062717078
-0.731114438 -1.055427881 0.062717078
-0.616137415 -1.126423997 0.062717078
-0.494335357 -1.184942568 0.062717078
-0.367057483 -1.230335376 0.062717078
-0.235713665 -1.262099601 0.062717078
-0.101758817 -1.279883384 0.062717078
0.033323228 -1.283489734 0.062717078
0.168036146 -1.272878701 0.062717078
0.300887706 -1.248167826 0.062717078
0.430406294 -1.209630834 0.062717078
0.555157216 -1.157694605 0.062717078
0.67375859 -1.092934443 0.062717078
0.784896652 -1.016067704 0.062717078
0.887340312 -0.927945852 0.062717078
0.979954789 -0.829545023 0.062717078
1.061714179 -0.721955217 0.062717078
1.131712824 -0.606368219 0.062717078
1.18917534 -0.484064402 0.062717078
1.233465206 -0.35639854 0.062717078
1.264091818 -0.224784806 0.062717078
1.280715922 -0.090681102 0.062717078
1.29020801 0 0.020939698
1.283131504 0.134945365 0.020939698
1.261979614 0.268410439 0.020939698
1.226984365 0.398931169 0.020939698
1.17852964 0.5250758 0.020939698
1.117146967 0.645460583 0.020939698
1.043509685 0.758764948 0.020939698
0.958425564 0.863745997 0.020939698
0.862827938 0.959252135 0.020939698
0.757765471 1.044235701 0.020939698
0.644390652 1.117764463 0.020939698
0.523947153 1.179031844 0.020939698
0.397756185 1.227365767 0.020939698
0.267202008 1.26223603 0.020939698
0.133716743 1.283260122 0.020939698
-0.001235335 1.290207418 0.020939698
-0.136173863 1.28300171 0.020939698
-0.269618623 1.26172204 0.020939698
-0.400105786 1.226601838 0.020939698
-0.526203966 1.178026356 0.020939698
-0.646529921 1.116528445 0.020939698
-0.759763729 1.042782712 0.020939698
-0.864663265 0.957598114 0.020939698
-0.960077827 0.861909087 0.020939698
-1.04496076 0.7567653 0.020939698
-1.118380936 0.643320131 0.020939698
-1.179532967 0.522818026 0.020939698
-1.227746044 0.396580837 0.020939698
-1.262491289 0.265993333 0.020939698
-1.283387564 0.132487999 0.020939698
-1.290205644 -0.002470669 0.020939698
-1.282870739 -0.137402236 0.020939698
-1.26146331 -0.27082656 0.020939698
-1.226218186 -0.401280037 0.020939698
-1.177521991 -0.52733165 0.020939698
-1.115908901 -0.647598667 0.020939698
-1.042054783 -0.760761814 0.020939698
-0.956769786 -0.86557974 0.020939698
-0.860989447 -0.960902639 0.020939698
-0.755764434 -1.045684861 0.020939698
-0.64224902 -1.118996383 0.020939698
-0.521688419 -1.180033009 0.020939698
-0.395405126 -1.228125195 0.020939698
-0.264784414 -1.262745391 0.020939698
-0.131259134 -1.283513829 0.020939698
0.003706001 -1.290202687 0.020939698
0.138630483 -1.282738593 0.020939698
0.272034249 -1.261203424 0.020939698
0.40245392 -1.225833411 0.020939698
0.52845885 -1.177016547 0.020939698
0.648666819 -1.115288333 0.020939698
0.761759201 -1.041325899 0.020939698
0.866495421 -0.955940581 0.020939698
0.96172657 -0.860069017 0.020939698
1.046408003 -0.754762876 0.020939698
1.119610804 -0.641177321 0.020939698
1.180531969 -0.520558334 0.020939698
1.228503221 -0.394229052 0.020939698
1.262998335 -0.263575252 0.020939698
1.283638917 -0.130030148 0.020939698
1.29020801 0 -0.020939698
1.283131504 0.134945365 -0.020939698
1.261979614 0.268410439 -0.020939698
1.226984365 0.398931169 -0.020939698
1.17852964 0.5250758 -0.020939698
1.117146967 0.645460583 -0.020939698
1.043509685 0.758764948 -0.020939698
0.958425564 0.863745997 -0.020939698
0.862827938 0.959252135 -0.020939698
0.757765471 1.044235701 -0.020939698
0.644390652 1.117764463 -0.020939698
0.523947153 1.179031844 -0.020939698
0.397756185 1.227365767 -0.020939698
0.267202008 1.26223603 -0.020939698
0.133716743 1.283260122 -0.020939698
-0.001235335 1.290207418 -0.020939698
-0.136173863 1.28300171 -0.020939698
-0.269618623 1.26172204 -0.020939698
-0.400105786 1.226601838 -0.020939698
-0.526203966 1.178026356 -0.020939698
-0.646529921 1.116528445 -0.020939698
-0.759763729 1.042782712 -0.020939698
-0.864663265 0.957598114 -0.020939698
-0.960077827 0.861909087 -0.020939698
-1.04496076 0.7567653 -0.020939698
-1.118380936 0.643320131 -0.020939698
-1.179532967 0.522818026 -0.020939698
-1.227746044 0.396580837 -0.020939698
-1.262491289 0.265993333 -0.020939698
-1.283387564 0.132487999 -0.020939698
-1.290205644 -0.002470669 -0.020939698
-1.282870739 -0.137402236 -0.020939698
-1.26146331 -0.27082656 -0.020939698
-1.226218186 -0.401280037 -0.020939698
-1.177521991 -0.52733165 -0.020939698
-1.115908901 -0.647598667 -0.020939698
-1.042054783 -0.760761814 -0.020939698
-0.956769786 -0.86557974 -0.020939698
-0.860989447 -0.960902639 -0.020939698
-0.755764434 -1.045684861 -0.020939698
-0.64224902 -1.118996383 -0.020939698
-0.521688419 -1.180033009 -0.020939698
-0.395405126 -1.228125195 -0.020939698
-0.264784414 -1.262745391 -0.020939698
-0.131259134 -1.283513829 -0.020939698
0.003706001 -1.290202687 -0.020939698
0.138630483 -1.282738593 -0.020939698
0.272034249 -1.261203424 -0.020939698
0.40245392 -1.225833411 -0.020939698
0.52845885 -1.177016547 -0.020939698
0.648666819 -1.115288333 -0.020939698
0.761759201 -1.041325899 -0.020939698
0.866495421 -0.955940581 -0.020939698
0.96172657 -0.860069017 -0.020939698
1.046408003 -0.754762876 -0.020939698
1.119610804 -0.641177321 -0.020939698
1.180531969 -0.520558334 -0.020939698
1.228503221 -0.394229052 -0.020939698
1.262998335 -0.263575252 -0.020939698
1.283638917 -0.130030148 -0.020939698
1.283922246 0 -0.062717078
1.27681116 0.134942939 -0.062717078
1.25555667 0.268391098 -0.062717078
1.220394217 0.398866254 -0.062717078
1.171713299 0.524923117 -0.062717078
1.110053161 0.645165338 -0.062717078
1.036096821 0.758260979 -0.062717078
0.950663501 0.862957265 -0.062717078
0.854699559 0.958094462 -0.062717078
0.749267999 1.042618722 -0.062717078
0.6355367 1.11559376 -0.062717078
0.514765479 1.176211221 -0.062717078
0.388292134 1.223799637 -0.062717078
0.257517627 1.257831867 -0.062717078
0.123890564 1.27793093 -0.062717078
-0.011108851 1.283874187 -0.062717078
-0.145985212 1.275595803 -0.062717078
-0.279244476 1.253187479 -0.062717078
-0.409410513 1.216897434 -0.062717078
-0.535041456 1.16712766 -0.062717078
-0.654745676 1.104429461 -0.062717078
-0.767197193 1.029497353 -0.062717078
-0.871150368 0.943161371 -0.062717078
-0.965453696 0.846377867 -0.062717078
-1.04906257 0.740218926 -0.062717078
-1.121050841 0.625860485 -0.062717078
-1.180621087 0.504569305 -0.062717078
-1.22711344 0.377688946 -0.062717078
-1.260012898 0.246624878 -0.062717078
-1.278955031 0.112828914 -0.062717078
-1.283730012 -0.022216871 -0.062717078
-1.27428495 -0.157016557 -0.062717078
-1.250724469 -0.290076949 -0.062717078
-1.213309551 -0.419924122 -0.062717078
-1.162454645 -0.545119741 -0.062717078
-1.098723079 -0.664276998 -0.062717078
-1.022820815 -0.776075972 -0.062717078
-0.935588632 -0.879278253 -0.062717078
-0.837992813 -0.972740654 -0.062717078
-0.731114438 -1.055427881 -0.062717078
-0.616137415 -1.126423997 -0.062717078
-0.494335357 -1.184942568 -0.062717078
-0.367057483 -1.230335376 -0.062717078
-0.235713665 -1.262099601 -0.062717078
-0.101758817 -1.279883384 -0.062717078
0.033323228 -1.283489734 -0.062717078
0.168036146 -1.272878701 -0.062717078
0.300887706 -1.248167826 -0.062717078
0.430406294 -1.209630834 -0.062717078
0.555157216 -1.157694605 -0.062717078
0.67375859 -1.092934443 -0.062717078
0.784896652 -1.016067704 -0.062717078
0.887340312 -0.927945852 -0.062717078
0.979954789 -0.829545023 -0.062717078
1.061714179 -0.721955217 -0.062717078
1.131712824 -0.606368219 -0.062717078
1.18917534 -0.484064402 -0.062717078
1.233465206 -0.35639854 -0.062717078
1.264091818 -0.224784806 -0.062717078
1.280715922 -0.090681102 -0.062717078
1.271381342 0 -0.104188907
1.264200243 0.134937992 -0.104188907
1.242738069 0.268351653 -0.104188907
1.207237266 0.398733871 -0.104188907
1.158098872 0.524611781 -0.104188907
1.095877979 0.644563397 -0.104188907
1.021277467 0.757233684 -0.104188907
0.935140064 0.861349858 -0.104188907
0.838438823 0.955735767 -0.104188907
0.732266133 1.039325179 -0.104188907
0.617821377 1.111173822 -0.104188907
0.496397383 1.170470058 -0.104188907
0.369365821 1.216544043 -0.104188907
0.238161707 1.248875302 -0.104188907
0.104267192 1.267098603 -0.104188907
-0.030805181 1.271008087 -0.104188907
-0.165529561 1.260559591 -0.104188907
-0.298384033 1.235871145 -0.104188907
-0.4278678 1.197221643 -0.104188907
-0.552518145 1.145047692 -0.104188907
-0.670926953 1.079938675 -0.104188907
-0.781756614 1.002630098 -0.104188907
-0.883755138 0.91399528 -0.104188907
-0.975770296 0.815035488 -0.104188907
-1.056762636 0.706868622 -0.104188907
-1.125817224 0.590716594 -0.104188907
-1.182153985 0.467891518 -0.104188907
-1.225136508 0.339780892 -0.104188907
-1.254279239 0.20783192 -0.104188907
-1.269252968 0.073535169 -0.104188907
-1.269888542 -0.061592274 -0.104188907
-1.256178782 -0.196023938 -0.104188907
-1.228278561 -0.328241212 -0.104188907
-1.186503055 -0.456750499 -0.104188907
-1.131324181 -0.580100091 -0.104188907
-1.063365269 -0.696896564 -0.104188907
-0.98339402 -0.805820525 -0.104188907
-0.892313831 -0.90564151 -0.104188907
-0.791153592 -0.995231888 -0.104188907
-0.681056063 -1.073579599 -0.104188907
-0.563264964 -1.139799587 -0.104188907
-0.439110924 -1.193143794 -0.104188907
-0.309996456 -1.233009617 -0.104188907
-0.177380103 -1.258946709 -0.104188907
-0.04275997 -1.270662072 -0.104188907
0.092343202 -1.268023363 -0.104188907
0.226403216 -1.251060391 -0.104188907
0.35790566 -1.219964777 -0.104188907
0.485365011 -1.175087794 -0.104188907
0.607341422 -1.116936397 -0.104188907
0.722456983 -1.046167494 -0.104188907
0.829411286 -0.963580529 -0.104188907
0.92699612 -0.870108447 -0.104188907
1.014109115 -0.76680716 -0.104188907
1.089766196 -0.654843612 -0.104188907
1.1531127 -0.535482604 -0.104188907
1.203433032 -0.4100725 -0.104188907
1.240158746 -0.280030001 -0.104188907
1.26287497 -0.146824134 -0.104188907
1.27132509 -0.011959663 -0.104188907
1.252646396 0 -0.145153137
1.245358102 0.134930323 -0.145153137
1.22357803 0.268290511 -0.145153137
1.187559628 0.3985287 -0.145153137
1.137722028 0.524129356 -0.145153137
1.074645172 0.643630911 -0.145153137
0.999063062 0.755642767 -0.145153137
0.911855221 0.858861485 -0.145153137
0.814036453 0.952085945 -0.145153137
0.706745041 1.034231329 -0.145153137
0.591229495 1.10434174 -0.145153137
0.468834026 1.16160133 -0.145153137
0.340982908 1.205343789 -0.145153137
0.209163896 1.235060103 -0.145153137
0.07491092 1.250404474 -0.145153137
-0.060213767 1.251198344 -0.145153137
-0.194637768 1.237432476 -0.145153137
-0.326796841 1.209267058 -0.145153137
-0.455153098 1.167029842 -0.145153137
-0.578212905 1.111212325 -0.145153137
-0.694544259 1.042464036 -0.145153137
-0.802793456 0.961584973 -0.145153137
-0.901700838 0.869516298 -0.145153137
-0.990115457 0.767329379 -0.145153137
-1.067008464 0.656213328 -0.145153137
-1.131485083 0.537461163 -0.145153137
-1.182795023 0.412454758 -0.145153137
-1.22034121 0.282648767 -0.145153137
-1.243686731 0.149553696 -0.145153137
-1.252559925 0.014718324 -0.145153137
-1.246857536 -0.12028832 -0.145153137
-1.226645921 -0.253895213 -0.145153137
-1.192160275 -0.384547621 -0.145153137
-1.143801896 -0.510725188 -0.145153137
-1.082133512 -0.630959632 -0.145153137
-1.007872735 -0.74385183 -0.145153137
-0.921883711 -0.848088095 -0.145153137
-0.825167063 -0.942455469 -0.145153137
-0.718848248 -1.025855833 -0.145153137
-0.604164458 -1.097318688 -0.145153137
-0.482450226 -1.156012445 -0.145153137
-0.355121898 -1.201254108 -0.145153137
-0.223661146 -1.232517215 -0.145153137
-0.089597731 -1.24943797 -0.145153137
0.045508301 -1.251819471 -0.145153137
0.180084769 -1.239634007 -0.145153137
0.312565656 -1.213023374 -0.145153137
0.441409331 -1.172297231 -0.145153137
0.565116486 -1.117929493 -0.145153137
0.682247588 -1.050552818 -0.145153137
0.791439623 -0.970951243 -0.145153137
0.891421965 -0.880051064 -0.145153137
0.981031154 -0.778910052 -0.145153137
1.059224443 -0.668705147 -0.145153137
1.125091923 -0.550718766 -0.145153137
1.17786712 -0.426323871 -0.145153137
1.216935907 -0.296968001 -0.145153137
1.241843655 -0.164156422 -0.145153137
1.252300522 -0.029434616 -0.145153137
1.227808683 0 -0.185410197
1.220373247 0.13491961 -0.185410197
1.198156993 0.268205111 -0.185410197
1.161429 0.398242188 -0.185410197
1.110634106 0.523455867 -0.185410197
1.046387524 0.642329597 -0.185410197
0.969467392 0.753423611 -0.185410197
0.880805344 0.855392371 -0.185410197
0.781475229 0.94700086 -0.185410197
0.672680107 1.02713954 -0.185410197
0.555737673 1.094837797 -0.185410197
0.432064301 1.149275686 -0.185410197
0.303157887 1.189793872 -0.185410197
0.170579711 1.21590161 -0.185410197
0.035935521 1.22728269 -0.185410197
-0.099143909 1.223799268 -0.185410197
-0.233022537 1.205493534 -0.185410197
-0.364078861 1.172587201 -0.185410197
-0.490725565 1.125478824 -0.185410197
-0.611428738 1.064738963 -0.185410197
-0.72472646 0.991103285 -0.185410197
-0.829246498 0.905463642 -0.185410197
-0.923722937 0.808857279 -0.185410197
-1.007011503 0.702454265 -0.185410197
-1.07810343 0.587543322 -0.185410197
-1.136137672 0.465516221 -0.185410197
-1.180411335 0.337850918 -0.185410197
-1.210388188 0.20609366 -0.185410197
-1.22570516 0.071840253 -0.185410197
-1.226176737 -0.063283262 -0.185410197
-1.211797207 -0.197640309 -0.185410197
-1.18274073 -0.329603591 -0.185410197
-1.139359231 -0.457574808 -0.185410197
-1.082178134 -0.580004008 -0.185410197
-1.01189 -0.695408362 -0.185410197
-0.929346139 -0.802390127 -0.185410197
-0.8355463 -0.899653568 -0.185410197
-0.73162656 -0.986020658 -0.185410197
-0.618845565 -1.060445345 -0.185410197
-0.498569286 -1.122026216 -0.185410197
-0.372254477 -1.170017421 -0.185410197
-0.241431027 -1.203837706 -0.185410197
-0.107683432 -1.223077447 -0.185410197
0.027368394 -1.227503618 -0.185410197
0.162088742 -1.217062612 -0.185410197
0.294845917 -1.191880886 -0.185410197
0.424032002 -1.152263435 -0.185410197
0.54808233 -1.098690094 -0.185410197
0.665494439 -1.031809727 -0.185410197
0.774846267 -0.952432373 -0.185410197
0.874813376 -0.861519425 -0.185410197
0.964184991 -0.760171997 -0.185410197
1.041878669 -0.64961758 -0.185410197
1.106953407 -0.531195178 -0.185410197
1.158621037 -0.406339089 -0.185410197
1.196255775 -0.276561536 -0.185410197
1.2194018 -0.143434348 -0.185410197
1.227778774 -0.008569923 -0.185410197
1.196989209 0 -0.224763956
1.189362731 0.134905379 -0.224763956
1.166580478 0.26809169 -0.224763956
1.128932761 0.397861771 -0.224763956
1.076899314 0.522561991 -0.224763956
1.011143189 0.640603324 -0.224763956
0.932502299 0.750481598 -0.224763956
0.841978749 0.850796658 -0.224763956
0.740726058 0.940270213 -0.224763956
0.630034467 1.017762122 -0.224763956
0.511314492 1.082284924 -0.224763956
0.386078954 1.13301642 -0.224763956
0.255923702 1.169310149 -0.224763956
0.122507274 1.19070363 -0.224763956
-0.012470237 1.19692425 -0.224763956
-0.147288842 1.187892741 -0.224763956
-0.28023058 1.16372419 -0.224763956
-0.409601404 1.12472657 -0.224763956
-0.533752772 1.07139682 -0.224763956
-0.651102652 1.004414508 -0.224763956
-0.760155681 0.924633174 -0.224763956
-0.859522223 0.833069454 -0.224763956
-0.947936072 0.730890122 -0.224763956
-1.02427059 0.619397227 -0.224763956
-1.087553066 0.500011496 -0.224763956
-1.136977104 0.374254234 -0.224763956
-1.171912906 0.243727937 -0.224763956
-1.191915293 0.110095872 -0.224763956
-1.196729379 -0.02493912 -0.224763956
-1.18629382 -0.159656319 -0.224763956
-1.160741593 -0.292339054 -0.224763956
-1.120398304 -0.421296579 -0.224763956
-1.065778039 -0.544885621 -0.224763956
-0.99757681 -0.66153131 -0.224763956
-0.916663692 -0.76974726 -0.224763956
-0.824069739 -0.868154497 -0.224763956
-0.720974857 -0.955499044 -0.224763956
-0.608692759 -1.030667886 -0.224763956
-0.48865423 -1.092703167 -0.224763956
-0.362388893 -1.140814383 -0.224763956
-0.231505719 -1.174388466 -0.224763956
-0.09767252 -1.192997588 -0.224763956
0.037405297 -1.196404618 -0.224763956
0.172006466 -1.184566141 -0.224763956
0.304415798 -1.157633011 -0.224763956
0.432946029 -1.115948432 -0.224763956
0.555959329 -1.06004358 -0.224763956
0.671888168 -0.990630838 -0.224763956
0.779255291 -0.908594716 -0.224763956
0.876692545 -0.814980582 -0.224763956
0.962958308 -0.710981339 -0.224763956
1.036953316 -0.597922225 -0.224763956
1.097734668 -0.477243927 -0.224763956
1.144527841 -0.35048422 -0.224763956
1.176736561 -0.219258373 -0.224763956
1.193950398 -0.085238567 -0.224763956
1.160338124 0 -0.263022688
1.152471289 0.134886959 -0.263022688
1.128977452 0.26794491 -0.263022688
1.090175181 0.397369647 -0.263022688
1.036590618 0.521406228 -0.263022688
0.968950344 0.638372771 -0.263022688
0.888171532 0.746683261 -0.263022688
0.795349508 0.844869057 -0.263022688
0.691742896 0.931598803 -0.263022688
0.578756556 1.005696481 -0.263022688
0.457922534 1.06615736 -0.263022688
0.330879285 1.112161617 -0.263022688
0.19934946 1.143085454 -0.263022688
0.065116544 1.158509559 -0.263022688
-0.069999324 1.158224787 -0.263022688
-0.204166032 1.142235 -0.263022688
-0.335564339 1.110757011 -0.263022688
-0.462412541 1.064217649 -0.263022688
-0.582990635 1.003247967 -0.263022688
-0.695663633 0.928674686 -0.263022688
-0.798903741 0.841508987 -0.263022688
-0.891311067 0.7429328 -0.263022688
-0.97163261 0.634282772 -0.263022688
-1.038779244 0.51703215 -0.263022688
-1.091840492 0.392770802 -0.263022688
-1.130096866 0.263183655 -0.263022688
-1.153029627 0.130027854 -0.263022688
-1.160327816 -0.004891067 -0.263022688
-1.151892473 -0.139743667 -0.263022688
-1.127837979 -0.272701405 -0.263022688
-1.0884905 -0.401961432 -0.263022688
-1.034383573 -0.525771041 -0.263022688
-0.966250861 -0.642451427 -0.263022688
-0.885016216 -0.750420455 -0.263022688
-0.791781143 -0.848214115 -0.263022688
-0.687809867 -0.934506367 -0.263022688
-0.574512195 -1.008127125 -0.263022688
-0.453424391 -1.068078127 -0.263022688
-0.326188353 -1.113546461 -0.263022688
-0.194529345 -1.143915599 -0.263022688
-0.060232606 -1.158773747 -0.263022688
0.074880861 -1.157919436 -0.263022688
0.208978976 -1.14136425 -0.263022688
0.340243429 -1.109332669 -0.263022688
0.466894332 -1.062259029 -0.263022688
0.587214355 -1.000781627 -0.263022688
0.69957201 -0.925734068 -0.263022688
0.802443779 -0.838133966 -0.263022688
0.894434765 -0.739169138 -0.263022688
0.974297612 -0.630181503 -0.263022688
1.040949414 -0.512648886 -0.263022688
1.093486403 -0.388164977 -0.263022688
1.1311962 -0.258417723 -0.263022688
1.153567478 -0.125166439 -0.263022688
1.118033989 0 -0.3
1.1098702 0.134863407 -0.3
1.085498057 0.267757292 -0.3
1.045273487 0.396740895 -0.3
0.989783921 0.519930563 -0.3
0.91983972 0.635527253 -0.3
0.836462338 0.741842812 -0.3
0.740869402 0.837324626 -0.3
0.634456937 0.920578294 -0.3
0.518778971 0.990387994 -0.3
0.395524846 1.045734238 -0.3
0.266494544 1.085808757 -0.3
0.133572401 1.110026312 -0.3
-0.00130041 1.118033232 -0.3
-0.13615423 1.109712587 -0.3
-0.269019678 1.085185889 -0.3
-0.397956408 1.044811322 -0.3
-0.52108145 0.989178509 -0.3
-0.636596709 0.919099902 -0.3
-0.742815218 0.835598918 -0.3
-0.838185781 0.739894991 -0.3
-0.921315622 0.633385763 -0.3
-0.990990727 0.517626679 -0.3
-1.046193574 0.394308262 -0.3
-1.086117989 0.265231436 -0.3
-1.110180922 0.132281215 -0.3
-1.118030964 -0.002600818 -0.3
-1.109553472 -0.137444869 -0.3
-1.084872252 -0.270281699 -0.3
-1.044347743 -0.399171381 -0.3
-0.988571758 -0.522231633 -0.3
-0.918358841 -0.637665303 -0.3
-0.834734368 -0.743786619 -0.3
-0.738919578 -0.839045802 -0.3
-0.632313732 -0.922051703 -0.3
-0.516473685 -0.99159212 -0.3
-0.393091145 -1.046651495 -0.3
-0.263967969 -1.08642575 -0.3
-0.13098985 -1.11033403 -0.3
0.003901223 -1.118027182 -0.3
0.138735322 -1.109392857 -0.3
0.271543355 -1.084557148 -0.3
0.400385815 -1.043882752 -0.3
0.523381109 -0.987963671 -0.3
0.638733035 -0.917616537 -0.3
0.744757014 -0.833868689 -0.3
0.839904688 -0.737943165 -0.3
0.922786538 -0.631240846 -0.3
0.992192171 -0.515319993 -0.3
1.047108 -0.391873496 -0.3
1.086732043 -0.262704145 -0.3
1.110485637 -0.129698307 -0.3
1.070282904 0 -0.335515742
1.061755833 0.1348334 -0.335515742
1.036310492 0.267518332 -0.335515742
0.994352334 0.395940563 -0.335515742
0.93654993 0.518053784 -0.335515742
0.863824317 0.631912212 -0.335515742
0.777334322 0.735701602 -0.335515742
0.678458097 0.827768147 -0.335515742
0.56877116 0.906644838 -0.335515742
0.450021288 0.971074835 -0.335515742
0.32410067 1.020031495 -0.335515742
0.193015755 1.052734731 -0.335515742
0.058855281 1.068663441 -0.335515742
-0.076243007 1.067563815 -0.335515742
-0.210126421 1.049453373 -0.335515742
-0.34066163 1.014620692 -0.335515742
-0.465768656 0.963620804 -0.335515742
-0.583454014 0.897266353 -0.335515742
-0.691842477 0.816614647 -0.335515742
-0.789206958 0.722950809 -0.335515742
-0.873996027 0.617767301 -0.335515742
-0.944858637 0.502740143 -0.335515742
-1.000665644 0.379702204 -0.335515742
-1.040527807 0.250613999 -0.335515742
-1.063809954 0.117532452 -0.335515742
-1.070141099 -0.017421885 -0.335515742
-1.059420363 -0.152098618 -0.335515742
-1.03181857 -0.284351776 -0.335515742
-0.987775536 -0.412074004 -0.335515742
-0.927993052 -0.533230148 -0.335515742
-0.853423705 -0.645889676 -0.335515742
-0.765255703 -0.748257444 -0.335515742
-0.664893935 -0.838702301 -0.335515742
-0.553937589 -0.915783076 -0.335515742
-0.43415467 -0.978271546 -0.335515742
-0.307453827 -1.025172004 -0.335515742
-0.175853942 -1.055737129 -0.335515742
-0.041451959 -1.069479887 -0.335515742
0.09361053 -1.066181299 -0.335515742
0.227181407 -1.045893925 -0.335515742
0.35713232 -1.008941029 -0.335515742
0.481392603 -0.955911427 -0.335515742
0.597982262 -0.887650105 -0.335515742
0.705043529 -0.805244756 -0.335515742
0.800870466 -0.710008445 -0.335515742
0.883936142 -0.603458691 -0.335515742
0.952916969 -0.487293283 -0.335515742
1.006713792 -0.363363228 -0.335515742
1.044469398 -0.233643258 -0.335515742
1.06558218 -0.10020036 -0.335515742
1.017317508 0 -0.369396885
1.008347761 0.134795055 -0.369396885
0.98159669 0.267213118 -0.369396885
0.93753603 0.394919113 -0.369396885
0.876942749 0.515661059 -0.369396885
0.800885357 0.627309778 -0.369396885
0.71070506 0.727896442 -0.369396885
0.607992106 0.815647296 -0.369396885
0.494557749 0.88901493 -0.369396885
0.372402302 0.946705571 -0.369396885
0.24367987 0.987701895 -0.369396885
0.110660359 1.011280969 -0.369396885
-0.024310551 1.017026996 -0.369396885
-0.158852765 1.00483865 -0.369396885
-0.290593751 0.974930862 -0.369396885
-0.417210372 0.927831029 -0.369396885
-0.536469858 0.864369715 -0.369396885
-0.646269171 0.785666005 -0.369396885
-0.744672098 0.693107769 -0.369396885
-0.82994339 0.588327189 -0.369396885
-0.900579364 0.473171979 -0.369396885
-0.955334416 0.3496728 -0.369396885
-0.993242989 0.220007449 -0.369396885
-1.0136366 0.086462461 -0.369396885
-1.016155624 -0.048607217 -0.369396885
-1.000755641 -0.182819748 -0.369396885
-0.967708216 -0.313808415 -0.369396885
-0.917596112 -0.439263348 -0.369396885
-0.85130301 -0.55697226 -0.369396885
-0.769997932 -0.664859457 -0.369396885
-0.67511462 -0.761022446 -0.369396885
-0.568326258 -0.843765475 -0.369396885
-0.451515965 -0.911629446 -0.369396885
-0.326743586 -0.963417636 -0.369396885
-0.196209373 -0.998216808 -0.369396885
-0.062215181 -1.015413307 -0.369396885
0.072876121 -1.01470389 -0.369396885
0.206682317 -0.996101066 -0.369396885
0.336843853 -0.959932879 -0.369396885
0.461065445 -0.906837123 -0.369396885
0.577156555 -0.837750096 -0.369396885
0.683070019 -0.753890086 -0.369396885
0.776938147 -0.65673589 -0.369396885
0.857105656 -0.548000737 -0.369396885
0.922158864 -0.429602074 -0.369396885
0.970950615 -0.303627759 -0.369396885
1.00262051 -0.172299236 -0.369396885
1.016610077 -0.037932368 -0.369396885
0.959395844 0 -0.401478364
0.949886307 0.13474565 -0.401478364
0.921546212 0.266820101 -0.401478364
0.874937373 0.393605106 -0.401478364
0.810983765 0.512587279 -0.401478364
0.730953205 0.621407916 -0.401478364
0.63643222 0.717909754 -0.401478364
0.529294594 0.800179741 -0.401478364
0.411664227 0.866586955 -0.401478364
0.285873022 0.915814938 -0.401478364
0.154414667 0.946887795 -0.401478364
0.019895194 0.959189537 -0.401478364
-0.115018682 0.952476293 -0.401478364
-0.247652425 0.926881148 -0.401478364
-0.375376705 0.882911499 -0.401478364
-0.495659512 0.821439002 -0.401478364
-0.606116358 0.743682289 -0.401478364
-0.704557547 0.651182808 -0.401478364
-0.789031578 0.545774272 -0.401478364
-0.857863837 0.429546299 -0.401478364
-0.909689793 0.304802996 -0.401478364
-0.943482048 0.174017274 -0.401478364
-0.958570703 0.039781832 -0.401478364
-0.95465664 -0.095242246 -0.401478364
-0.931817453 -0.228378241 -0.401478364
-0.890505905 -0.356986862 -0.401478364
-0.831540957 -0.478518571 -0.401478364
-0.756091531 -0.590564123 -0.401478364
-0.665653337 -0.690902324 -0.401478364
-0.562019223 -0.777544069 -0.401478364
-0.447243633 -0.84877177 -0.401478364
-0.323601881 -0.90317341 -0.401478364
-0.19354504 -0.939670529 -0.401478364
-0.05965136 -0.957539608 -0.401478364
0.075424849 -0.95642641 -0.401478364
0.209005835 -0.936353003 -0.401478364
0.338443487 -0.897717323 -0.401478364
0.461171831 -0.841285284 -0.401478364
0.574757899 -0.768175594 -0.401478364
0.676949959 -0.679837583 -0.401478364
0.765722155 -0.578022463 -0.401478364
0.839314666 -0.464748618 -0.401478364
0.896268592 -0.342261591 -0.401478364
0.935454879 -0.212989566 -0.401478364
0.956096697 -0.079495234 -0.401478364
0.8968001 0 -0.43160388
0.886629239 0.134681149 -0.43160388
0.856347357 0.266307385 -0.43160388
0.806641325 0.391893088 -0.43160388
0.738638602 0.508589652 -0.43160388
0.653881666 0.613750101 -0.43160388
0.554293019 0.704989127 -0.43160388
0.442131587 0.780237194 -0.43160388
0.319941479 0.837787485 -0.43160388
0.190494279 0.87633461 -0.43160388
0.056726182 0.895004223 -0.43160388
-0.078328611 0.893372849 -0.43160388
-0.21160671 0.871477492 -0.43160388
-0.340085027 0.829814795 -0.43160388
-0.460849345 0.769329773 -0.43160388
-0.571160421 0.691394383 -0.43160388
-0.668516116 0.597776398 -0.43160388
-0.750708154 0.490599315 -0.43160388
-0.815872209 0.372294183 -0.43160388
-0.862530194 0.245544465 -0.43160388
-0.889623786 0.113225171 -0.43160388
-0.896538433 -0.02166236 -0.43160388
-0.883117293 -0.156058533 -0.43160388
-0.849664793 -0.2869149 -0.43160388
-0.796939719 -0.411263301 -0.43160388
-0.726138013 -0.526283199 -0.43160388
-0.638865638 -0.629365646 -0.43160388
-0.537102154 -0.718172469 -0.43160388
-0.423155819 -0.790689302 -0.43160388
-0.299611227 -0.845271277 -0.43160388
-0.169270685 -0.880680336 -0.43160388
-0.03509065 -0.896113311 -0.43160388
0.09988533 -0.891220141 -0.43160388
0.232595656 -0.866111817 -0.43160388
0.360030116 -0.82135786 -0.43160388
0.479298172 -0.757973404 -0.43160388
0.587694518 -0.677396171 -0.43160388
0.682760448 -0.581453859 -0.43160388
0.762339623 -0.472322684 -0.43160388
0.824626984 -0.352478022 -0.43160388
0.868209694 -0.224638256 -0.43160388
0.892099186 -0.091703119 -0.43160388
0.829835236 0 -0.459626666
0.818847117 0.134595384 -0.459626666
0.786173755 0.265626326 -0.459626666
0.732680428 0.389622778 -0.459626666
0.65978378 0.503300986 -0.459626666
0.569414308 0.603650449 -0.459626666
0.463965235 0.688013647 -0.459626666
0.346229133 0.75415642 -0.459626666
0.219323965 0.800327131 -0.459626666
0.086610517 0.825303058 -0.459626666
-0.048396608 0.828422771 -0.459626666
-0.182122061 0.809603652 -0.459626666
-0.31102444 0.769344082 -0.459626666
-0.431690067 0.70871024 -0.459626666
-0.540923396 0.629307872 -0.459626666
-0.635831639 0.533239763 -0.459626666
-0.713901375 0.423050051 -0.459626666
-0.773065109 0.301656852 -0.459626666
-0.811756029 0.17227498 -0.459626666
-0.828949496 0.038330809 -0.459626666
-0.824190184 -0.096628463 -0.459626666
-0.797604129 -0.229028758 -0.459626666
-0.749895402 -0.355363763 -0.459626666
-0.682327457 -0.472287794 -0.459626666
-0.596689671 -0.576704391 -0.459626666
-0.495249961 -0.665848327 -0.459626666
-0.380694718 -0.737358834 -0.459626666
-0.256057669 -0.789342124 -0.459626666
-0.124639535 -0.820421541 -0.459626666
0.010079385 -0.82977402 -0.459626666
0.144531376 -0.817151883 -0.459626666
0.275155793 -0.782889397 -0.459626666
0.398493354 -0.727893924 -0.459626666
0.511277756 -0.65362189 -0.459626666
0.610522166 -0.562040215 -0.459626666
0.693598331 -0.455574225 -0.459626666
0.758306172 -0.337043421 -0.459626666
0.802932056 -0.209586814 -0.459626666
0.826294169 -0.076579792 -0.459626666
0.758827498 0 -0.485410197
0.746816367 0.134478566 -0.485410197
0.711163213 0.264699934 -0.485410197
0.65299671 0.386541676 -0.485410197
0.57415824 0.496146638 -0.485410197
0.477143598 0.590045048 -0.485410197
0.365023984 0.665264355 -0.485410197
0.241348778 0.719423338 -0.485410197
0.110033174 0.75080748 -0.485410197
-0.024765758 0.758423252 -0.485410197
-0.158780679 0.74202956 -0.485410197
-0.287769067 0.702145381 -0.485410197
-0.407647528 0.640033331 -0.485410197
-0.514621059 0.557659696 -0.485410197
-0.605303192 0.457632186 -0.485410197
-0.676823195 0.343117377 -0.485410197
-0.726916953 0.217740476 -0.485410197
-0.753998645 0.085470547 -0.485410197
-0.757210944 -0.049505129 -0.485410197
-0.736452157 -0.182913618 -0.485410197
-0.692379447 -0.310531596 -0.485410197
-0.626388028 -0.428319051 -0.485410197
-0.540566994 -0.532547177 -0.485410197
-0.437633189 -0.619916416 -0.485410197
-0.320845197 -0.687660913 -0.485410197
-0.193900183 -0.733636075 -0.485410197
-0.060816856 -0.756386463 -0.485410197
0.074191755 -0.755191866 -0.485410197
0.206851672 -0.730090102 -0.485410197
0.332963269 -0.681875819 -0.485410197
0.448534223 -0.61207534 -0.485410197
0.549905894 -0.522898345 -0.485410197
0.633869151 -0.417167917 -0.485410197
0.697765963 -0.298231171 -0.485410197
0.739573545 -0.169853299 -0.485410197
0.757968389 -0.036098367 -0.485410197
0.684122828 0 -0.508828858
0.670808228 0.134314426 -0.508828858
0.631382693 0.263400719 -0.508828858
0.567380847 0.382234247 -0.508828858
0.481293933 0.486189463 -0.508828858
0.376472851 0.571219955 -0.508828858
0.256997718 0.634015944 -0.508828858
0.127519054 0.672133123 -0.508828858
-0.006923236 0.684087796 -0.508828858
-0.141096043 0.669414633 -0.508828858
-0.269776744 0.62868478 -0.508828858
-0.387956496 0.563483631 -0.508828858
-0.4910352 0.476349112 -0.508828858
-0.575000562 0.3706729 -0.508828858
-0.636584262 0.250568397 -0.508828858
-0.673389182 0.120710623 -0.508828858
-0.683982704 -0.013845763 -0.508828858
-0.66795248 -0.147863209 -0.508828858
-0.625922481 -0.276125139 -0.508828858
-0.559528706 -0.393639012 -0.508828858
-0.471355506 -0.495830648 -0.508828858
-0.364834986 -0.57872228 -0.508828858
-0.244113414 -0.639087385 -0.508828858
-0.113889828 -0.674576275 -0.508828858
0.020766872 -0.683807562 -0.508828858
0.154615231 -0.666421919 -0.508828858
0.282445256 -0.623096078 -0.508828858
0.399281214 -0.555516477 -0.508828858
0.500575316 -0.466313626 -0.508828858
0.582384729 -0.358959708 -0.508828858
0.641525056 -0.237633431 -0.508828858
0.675694283 -0.10705737 -0.508828858
0.606085181 0 -0.529768556
0.591069644 0.134074318 -0.529768556
0.546767041 0.261505353 -0.529768556
0.475372534 0.37597899 -0.529768556
0.380423668 0.471823145 -0.529768556
0.266625089 0.54428881 -0.529768556
0.139615433 0.589785366 -0.529768556
0.005687935 0.606058491 -0.529768556
-0.128521395 0.592301864 -0.529768556
-0.256362585 0.549197116 -0.529768556
-0.371501198 0.478880055 -0.529768556
-0.4682322 0.38483484 -0.529768556
-0.541762641 0.271721342 -0.529768556
-0.588449143 0.145144251 -0.529768556
-0.605978422 0.01137537 -0.529768556
-0.593481917 -0.122957153 -0.529768556
-0.55157882 -0.251197239 -0.529768556
-0.482345398 -0.366990686 -0.529768556
-0.389212117 -0.464600016 -0.529768556
-0.276793663 -0.539188757 -0.529768556
-0.150660286 -0.587061092 -0.529768556
-0.017061803 -0.605844982 -0.529768556
0.11738208 -0.594609699 -0.529768556
0.246009768 -0.553911944 -0.529768556
0.362447852 -0.485768259 -0.529768556
0.460926912 -0.393555115 -0.529768556
0.536567383 -0.281841605 -0.529768556
0.585621336 -0.156163051 -0.529768556
0.605658182 -0.022746732 -0.529768556
0.525094748 0 -0.548127275
0.507787104 0.133703972 -0.548127275
0.457005124 0.258593912 -0.548127275
