# .PCD v.5 - Point Cloud Data file format
VERSION .5
FIELDS x y z
SIZE 4 4 4
TYPE F F F
COUNT 1 1 1
WIDTH 1303
HEIGHT 1
POINTS 1303
DATA ascii
0.950953632 0.499533127 0.325
0.883753417 0.610594834 0.325
0.803647019 0.712739519 0.325
0.711804298 0.804475479 0.325
0.609566508 0.884463016 0.325
0.498426714 0.951534006 0.325
0.380007981 1.004708957 0.325
0.256039676 1.04321131 0.325
0.128332212 1.066478784 0.325
-0.001249393 1.074171584 0.325
-0.130812753 1.066177367 0.325
-0.258465746 1.042612877 0.325
-0.382344149 1.003822248 0.325
-0.500638864 0.95037197 0.325
-0.611622334 0.883042623 0.325
-0.713673777 0.802817473 0.325
-0.80530285 0.710868113 0.325
-0.885171418 0.608537357 0.325
-0.952113094 0.497319626 0.325
-1.005150273 0.378839125 0.325
-1.04350841 0.254826121 0.325
-1.066627329 0.127091681 0.325
-1.074169405 -0.002498785 0.325
-1.066024494 -0.132052759 0.325
-1.042311545 -0.259678257 0.325
-1.003376856 -0.383511458 0.325
-0.949789023 -0.501743924 0.325
-0.882330634 -0.612649007 0.325
-0.80198684 -0.714607069 0.325
-0.709930967 -0.806129131 0.325
-0.607507384 -0.885878622 0.325
-0.496211866 -0.952690893 0.325
-0.377669756 -1.005590229 0.325
-0.253612221 -1.043804098 0.325
-0.125850977 -1.06677443 0.325
0.003748173 -1.074165772 0.325
0.133292586 -1.06587018 0.325
0.260890417 -1.042008802 0.325
0.384678248 -1.002930107 0.325
0.502848305 -0.949204792 0.325
0.61367485 -0.881617452 0.325
0.715539394 -0.801155122 0.325
0.806954322 -0.70899286 0.325
0.886584628 -0.606476588 0.325
0.953267403 -0.495103435 0.325
1.006028825 -0.376499876 0.325
1.044098374 -0.252397978 0.325
1.066920089 -0.124610103 0.325
1.11481681 0 0.284941245
1.107258599 0.129595198 0.284941245
1.084686451 0.257433143 0.284941245
1.047406435 0.381780408 0.284941245
0.995924051 0.5009509 0.284941245
0.930937378 0.613328719 0.284941245
0.853327606 0.717390072 0.284941245
0.76414709 0.811723934 0.284941245
0.664605077 0.895051178 0.284941245
0.556051313 0.966241924 0.284941245
0.43995774 1.024330858 0.284941245
0.317898535 1.068530318 0.284941245
0.191528766 1.098240981 0.284941245
0.062561951 1.113059981 0.284941245
-0.067253175 1.112786381 0.284941245
-0.196156378 1.09742389 0.284941245
-0.322399788 1.067180817 0.284941245
-0.444271599 1.022467244 0.284941245
-0.560119284 0.963889468 0.284941245
-0.668372 0.892241778 0.284941245
-0.767561886 0.808495683 0.284941245
-0.856343974 0.713786746 0.284941245
-0.933514416 0.609399175 0.284941245
-0.998026816 0.496748422 0.284941245
-1.049006413 0.37736198 0.284941245
-1.085761949 0.252858677 0.284941245
-1.107795032 0.124926721 0.284941245
-1.114806906 -0.004699185 0.284941245
-1.106702491 -0.134261372 0.284941245
-1.08359168 -0.262003035 0.284941245
-1.045787846 -0.386192052 0.284941245
-0.993803591 -0.505144477 0.284941245
-0.928343799 -0.617247365 0.284941245
-0.850296077 -0.720980653 0.284941245
-0.760718716 -0.814937762 0.284941245
-0.660826345 -0.897844675 0.284941245
-0.551973462 -0.968577212 0.284941245
-0.435636064 -1.026176271 0.284941245
-0.313391632 -1.069860834 0.284941245
-0.18689775 -1.099038557 0.284941245
-0.057869616 -1.113313804 0.284941245
0.071943204 -1.112493009 0.284941245
0.200780506 -1.096587301 0.284941245
0.326895313 -1.065812354 0.284941245
0.448577565 -1.020585463 0.284941245
0.564177303 -0.961519886 0.284941245
0.672127047 -0.889416524 0.284941245
0.770963045 -0.805253068 0.284941245
0.859345126 -0.710170736 0.284941245
0.936074867 -0.605458804 0.284941245
1.000111847 -0.492537118 0.284941245
1.050587753 -0.372936847 0.284941245
1.086818155 -0.248279717 0.284941245
1.108311783 -0.120256025 0.284941245
1.150030033 0 0.243494286
1.14270275 0.129612896 0.243494286
1.12081427 0.257574164 0.243494286
1.084643513 0.382253225 0.243494286
1.034651394 0.502061321 0.243494286
0.971474952 0.615471766 0.243494286
0.89591923 0.721039396 0.243494286
0.808947016 0.817418988 0.243494286
0.711666577 0.9033824 0.243494286
0.605317536 0.977834218 0.243494286
0.491255074 1.039825721 0.243494286
0.370932661 1.088566965 0.243494286
0.24588354 1.123436853 0.243494286
0.117701181 1.143991044 0.243494286
-0.011981016 1.149967622 0.243494286
-0.141510542 1.141290429 0.243494286
-0.269236832 1.118070036 0.243494286
-0.393532299 1.080602335 0.243494286
-0.512813076 1.029364769 0.243494286
-0.625559193 0.965010245 0.243494286
-0.730333955 0.888358819 0.243494286
-0.82580224 0.800387242 0.243494286
-0.910747518 0.702216516 0.243494286
-0.984087352 0.595097607 0.243494286
-1.044887187 0.480395506 0.243494286
-1.092372268 0.359571838 0.243494286
-1.1259375 0.234166228 0.243494286
-1.145155172 0.105776692 0.243494286
-1.149780397 -0.023960732 0.243494286
-1.139754235 -0.153392829 0.243494286
-1.11520445 -0.280870278 0.243494286
-1.076443871 -0.404768661 0.243494286
-1.023966418 -0.523509171 0.243494286
-0.958440797 -0.635578724 0.243494286
-0.880701988 -0.739549245 0.243494286
-0.791740596 -0.834095861 0.243494286
-0.692690237 -0.918013787 0.243494286
-0.584813087 -0.990233675 0.243494286
-0.469483798 -1.049835244 0.243494286
-0.348171987 -1.096059006 0.243494286
-0.2224235 -1.128315942 0.243494286
-0.093840722 -1.146195008 0.243494286
0.035937847 -1.149468376 0.243494286
0.165258468 -1.138094335 0.243494286
0.292473238 -1.112217821 0.243494286
0.41596109 -1.072168573 0.243494286
0.534148445 -1.018456929 0.243494286
0.645529271 -0.951767323 0.243494286
0.748684267 -0.872949567 0.243494286
0.842298952 -0.783008016 0.243494286
0.925180416 -0.683088775 0.243494286
0.99627252 -0.574465092 0.243494286
1.054669354 -0.458521134 0.243494286
1.099626781 -0.336734346 0.243494286
1.130571918 -0.210656631 0.243494286
1.147110438 -0.081894567 0.243494286
1.179640426 0 0.200861046
1.17249669 0.129626568 0.200861046
1.151152004 0.257683136 0.200861046
1.115864889 0.382618718 0.200861046
1.067062734 0.50292013 0.200861046
1.005336615 0.617130315 0.200861046
0.931434142 0.723865991 0.200861046
0.846250401 0.821834407 0.200861046
0.750817114 0.909848996 0.200861046
0.646290142 0.98684375 0.200861046
0.533935485 1.051886131 0.200861046
0.415113953 1.104188363 0.200861046
0.291264677 1.143116977 0.200861046
0.163887685 1.16820048 0.200861046
0.034525732 1.179135068 0.200861046
-0.095254387 1.175788304 0.200861046
-0.223880812 1.158200724 0.200861046
-0.349795655 1.126585342 0.200861046
-0.471473872 1.081325077 0.200861046
-0.58744173 1.022968107 0.200861046
-0.69629466 0.952221235 0.200861046
-0.796714265 0.869941328 0.200861046
-0.887484291 0.777124937 0.200861046
-0.967505357 0.674896227 0.200861046
-1.035808271 0.564493365 0.200861046
-1.091565768 0.447253518 0.200861046
-1.134102527 0.324596662 0.200861046
-1.162903356 0.198008383 0.200861046
-1.177619427 0.069021883 0.200861046
-1.178072503 -0.060800592 0.200861046
-1.164257097 -0.189886667 0.200861046
-1.136340537 -0.316672887 0.200861046
-1.094660941 -0.439623656 0.200861046
-1.03972312 -0.557249826 0.200861046
-0.972192465 -0.668126743 0.200861046
-0.892886889 -0.770911498 0.200861046
-0.802766919 -0.864359189 0.200861046
-0.702924062 -0.947338006 0.200861046
-0.594567587 -1.018842932 0.200861046
-0.479009876 -1.078007919 0.200861046
-0.357650533 -1.124116378 0.200861046
-0.231959428 -1.156609856 0.200861046
-0.103458895 -1.175094801 0.200861046
0.026294703 -1.179347329 0.200861046
0.155729826 -1.169315935 0.200861046
0.283278794 -1.145122115 0.200861046
0.407396769 -1.107058899 0.200861046
0.526580469 -1.055587298 0.200861046
0.639386375 -0.99133072 0.200861046
0.744448213 -0.915067425 0.200861046
0.840493505 -0.82772109 0.200861046
0.926358975 -0.730349631 0.200861046
1.001004647 -0.624132383 0.200861046
1.063526432 -0.510355819 0.200861046
1.113167085 -0.390397969 0.200861046
1.149325372 -0.265711729 0.200861046
1.171563354 -0.137807264 0.200861046
1.17961169 -0.008233716 0.200861046
1.203503729 0 0.157249232
1.196501362 0.129636861 0.157249232
1.175575746 0.257765185 0.157249232
1.140970384 0.38289399 0.157249232
1.093087967 0.503567197 0.157249232
1.032485684 0.618380577 0.157249232
0.959868742 0.725998087 0.157249232
0.876082158 0.825167424 0.157249232
0.782100926 0.914734588 0.157249232
0.679018672 0.99365732 0.157249232
0.568034925 1.061017224 0.157249232
0.450441163 1.116030459 0.157249232
0.327605781 1.158056854 0.157249232
0.200958171 1.186607365 0.157249232
0.071972084 1.201349759 0.157249232
-0.057851516 1.202112485 0.157249232
-0.187001919 1.188886667 0.157249232
-0.313976249 1.161826209 0.157249232
-0.437296952 1.121246004 0.157249232
-0.55552899 1.067618268 0.157249232
-0.66729654 1.001567049 0.157249232
-0.771299004 0.923860959 0.157249232
-0.866326143 0.835404237 0.157249232
-0.951272161 0.737226221 0.157249232
-1.025148572 0.630469372 0.157249232
-1.087095704 0.516375982 0.157249232
-1.1363927 0.396273713 0.157249232
-1.17246591 0.271560152 0.157249232
-1.194895561 0.143686544 0.157249232
-1.20342065 0.014140908 0.157249232
-1.197941971 -0.11556928 0.157249232
-1.17852328 -0.243934631 0.157249232
-1.145390543 -0.369461403 0.157249232
-1.098929315 -0.490688888 0.157249232
-1.039680248 -0.606206406 0.157249232
-0.968332802 -0.714669721 0.157249232
-0.88571722 -0.814816686 0.157249232
-0.792794871 -0.905481926 0.157249232
-0.690647057 -0.985610404 0.157249232
-0.580462435 -1.054269694 0.157249232
-0.463523184 -1.110660832 0.157249232
-0.341190083 -1.154127615 0.157249232
-0.214886678 -1.184164237 0.157249232
-0.086082715 -1.200421173 0.157249232
0.043722961 -1.202709245 0.157249232
0.173019849 -1.191001829 0.157249232
0.300303368 -1.16543516 0.157249232
0.424092367 -1.126306748 0.157249232
0.542946358 -1.074071915 0.157249232
0.65548228 -1.009338499 0.157249232
0.760390594 -0.93285978 0.157249232
0.856450521 -0.845525713 0.157249232
0.942544245 -0.748352571 0.157249232
1.017669927 -0.642471124 0.157249232
1.080953355 -0.529113475 0.157249232
1.131658124 -0.409598726 0.157249232
1.1691942 -0.285317626 0.157249232
1.193124791 -0.157716389 0.157249232
1.203171424 -0.028279864 0.157249232
1.221503683 0 0.112871315
1.214604306 0.129644229 0.112871315
1.193984116 0.257823928 0.112871315
1.159876048 0.383091112 0.112871315
1.112665406 0.504030695 0.112871315
1.052885505 0.619276481 0.112871315
0.981211652 0.727526591 0.112871315
0.898453512 0.827558175 0.112871315
0.805545965 0.918241224 0.112871315
0.703538544 0.998551333 0.112871315
0.593583579 1.067581276 0.112871315
0.476923179 1.124551256 0.112871315
0.354875202 1.168817709 0.112871315
0.228818366 1.199880578 0.112871315
0.100176677 1.21738896 0.112871315
-0.02959666 1.221145071 0.112871315
-0.159035658 1.21110648 0.112871315
-0.286678106 1.187386588 0.112871315
-0.411082085 1.150253349 0.112871315
-0.530842263 1.100126238 0.112871315
-0.644605766 1.037571517 0.112871315
-0.75108746 0.963295839 0.112871315
-0.849084472 0.878138261 0.112871315
-0.937489776 0.783060768 0.112871315
-1.015304699 0.679137405 0.112871315
-1.081650202 0.567542146 0.112871315
-1.135776811 0.44953563 0.112871315
-1.177073083 0.326450921 0.112871315
-1.205072514 0.19967845 0.112871315
-1.219458807 0.070650306 0.112871315
-1.220069447 -0.059175942 0.112871315
-1.206897536 -0.188333708 0.112871315
-1.18009187 -0.315363956 0.112871315
-1.139955262 -0.438831685 0.112871315
-1.086941115 -0.557342139 0.112871315
-1.021648304 -0.669556561 0.112871315
-0.944814414 -0.774207317 0.112871315
-0.857307399 -0.870112218 0.112871315
-0.760115785 -0.956187869 0.112871315
-0.6543375 -1.031461915 0.112871315
-0.541167472 -1.095084021 0.112871315
-0.42188413 -1.146335478 0.112871315
-0.297834961 -1.184637321 0.112871315
-0.17042129 -1.209556874 0.112871315
-0.04108245 -1.220812631 0.112871315
0.088720479 -1.218277441 0.112871315
0.217521174 -1.201979944 0.112871315
0.343864635 -1.172104244 0.112871315
0.466323619 -1.128987834 0.112871315
0.583514764 -1.073117779 0.112871315
0.694114217 -1.005125216 0.112871315
0.796872588 -0.925778227 0.112871315
0.890629064 -0.835973156 0.112871315
0.974324522 -0.736724489 0.112871315
1.047013494 -0.629153392 0.112871315
1.107874846 -0.514475045 0.112871315
1.156221058 -0.393984915 0.112871315
1.191505983 -0.269044122 0.112871315
1.213331025 -0.141064065 0.112871315
1.221449637 -0.011490473 0.112871315
1.233552593 0 0.067943501
1.226720482 0.129648982 0.067943501
1.20629983 0.257861826 0.067943501
1.172516838 0.383218301 0.067943501
1.125745724 0.504329817 0.067943501
1.06650458 0.619854807 0.067943501
0.995449626 0.728513584 0.067943501
0.913367948 0.829102522 0.067943501
0.821168775 0.920507384 0.067943501
0.719873408 1.001715667 0.067943501
0.610603911 1.071827815 0.067943501
0.494570675 1.130067187 0.067943501
0.373059016 1.175788659 0.067943501
0.247414933 1.208485768 0.067943501
0.119030204 1.227796323 0.067943501
-0.010673039 1.233506419 0.067943501
-0.140258055 1.225552805 0.067943501
-0.268289415 1.204023584 0.067943501
-0.393348897 1.169157237 0.067943501
-0.514051204 1.121339984 0.067943501
-0.629059298 1.061101503 0.067943501
-0.737099221 0.989109063 0.067943501
-0.8369742 0.906160134 0.067943501
-0.927577908 0.813173552 0.067943501
-1.007906715 0.711179341 0.067943501
-1.077070809 0.601307304 0.067943501
-1.13430405 0.484774508 0.067943501
-1.178972458 0.362871802 0.067943501
-1.210581235 0.236949518 0.067943501
-1.228780247 0.108402514 0.067943501
-1.233367901 -0.021345279 0.067943501
-1.224293379 -0.150856628 0.067943501
-1.201657201 -0.278696918 0.067943501
-1.16571011 -0.403450046 0.067943501
-1.116850297 -0.523734106 0.067943501
-1.055618989 -0.638216696 0.067943501
-0.982694452 -0.745629676 0.067943501
-0.898884482 -0.84478322 0.067943501
-0.805117452 -0.93457899 0.067943501
-0.702432031 -1.014022308 0.067943501
-0.59196568 -1.08223317 0.067943501
-0.474942049 -1.138455994 0.067943501
-0.352657422 -1.182067994 0.067943501
-0.226466364 -1.212586074 0.067943501
-0.097766709 -1.22967218 0.067943501
0.032015921 -1.233137049 0.067943501
0.161443907 -1.222942299 0.067943501
0.289083557 -1.199200858 0.067943501
0.413520992 -1.162175714 0.067943501
0.533377801 -1.112276999 0.067943501
0.647326314 -1.050057448 0.067943501
0.754104311 -0.976206274 0.067943501
0.852528996 -0.891541537 0.067943501
0.941510107 -0.797001078 0.067943501
1.020061989 -0.693632136 0.067943501
1.087314511 -0.582579741 0.067943501
1.14252271 -0.465074034 0.067943501
1.185075037 -0.342416642 0.067943501
1.214500135 -0.215966256 0.067943501
1.230472056 -0.087123584 0.067943501
1.23959176 0 0.022684673
1.232792873 0.129651313 0.022684673
1.212470794 0.257880408 0.022684673
1.178848446 0.383280669 0.022684673
1.132294653 0.504476511 0.022684673
1.073320088 0.620138469 0.022684673
1.002571676 0.728997782 0.022684673
0.920825496 0.829860311 0.022684673
0.828978268 0.92161964 0.022684673
0.728037515 1.00326921 0.022684673
0.619110513 1.07391336 0.022684673
0.503392142 1.132777155 0.022684673
0.382151782 1.179214886 0.022684673
0.256719386 1.212717151 0.022684673
0.128470891 1.232916445 0.022684673
-0.001186872 1.239591192 0.022684673
-0.130831615 1.232668171 0.022684673
-0.259041194 1.212223325 0.022684673
-0.384409205 1.178480926 0.022684673
-0.505560418 1.131811113 0.022684673
-0.621165856 1.072725832 0.022684673
-0.72995738 1.001873223 0.022684673
-0.830741594 0.920030508 0.022684673
-0.92241294 0.828095465 0.022684673
-1.003965824 0.727076582 0.022684673
-1.074505647 0.61808199 0.022684673
-1.133258618 0.502307311 0.022684673
-1.179580244 0.381022544 0.022684673
-1.212962396 0.255558128 0.022684673
-1.233038887 0.127290352 0.022684673
-1.239589487 -0.002373742 0.022684673
-1.232542338 -0.132011798 0.022684673
-1.211974746 -0.260201742 0.022684673
-1.178112326 -0.385537389 0.022684673
-1.131326535 -0.506643861 0.022684673
-1.072130593 -0.622192674 0.022684673
-1.001173852 -0.730916308 0.022684673
-0.919234676 -0.831622114 0.022684673
-0.827211903 -0.923205393 0.022684673
-0.726114981 -1.004661517 0.022684673
-0.617052899 -1.075096949 0.022684673
-0.50122202 -1.133739043 0.022684673
-0.379892957 -1.179944521 0.022684673
-0.254396636 -1.213206529 0.022684673
-0.126109696 -1.233160199 0.022684673
0.003560611 -1.239586646 0.022684673
0.133191859 -1.232415376 0.022684673
0.261362052 -1.211725055 0.022684673
0.386665219 -1.177742646 0.022684673
0.50772684 -1.13084092 0.022684673
0.623218921 -1.07153437 0.022684673
0.731874567 -1.000473562 0.022684673
0.832501872 -0.918438002 0.022684673
0.923997 -0.826327583 0.022684673
1.00535629 -0.725152716 0.022684673
1.075687266 -0.616023244 0.022684673
1.134218428 -0.500136269 0.022684673
1.180307716 -0.378763022 0.022684673
1.21344955 -0.253234911 0.022684673
1.23328038 -0.124928925 0.022684673
1.23959176 0 -0.022684673
1.232792873 0.129651313 -0.022684673
1.212470794 0.257880408 -0.022684673
1.178848446 0.383280669 -0.022684673
1.132294653 0.504476511 -0.022684673
1.073320088 0.620138469 -0.022684673
1.002571676 0.728997782 -0.022684673
0.920825496 0.829860311 -0.022684673
0.828978268 0.92161964 -0.022684673
0.728037515 1.00326921 -0.022684673
0.619110513 1.07391336 -0.022684673
0.503392142 1.132777155 -0.022684673
0.382151782 1.179214886 -0.022684673
0.256719386 1.212717151 -0.022684673
0.128470891 1.232916445 -0.022684673
-0.001186872 1.239591192 -0.022684673
-0.130831615 1.232668171 -0.022684673
-0.259041194 1.212223325 -0.022684673
-0.384409205 1.178480926 -0.022684673
-0.505560418 1.131811113 -0.022684673
-0.621165856 1.072725832 -0.022684673
-0.72995738 1.001873223 -0.022684673
-0.830741594 0.920030508 -0.022684673
-0.92241294 0.828095465 -0.022684673
-1.003965824 0.727076582 -0.022684673
-1.074505647 0.61808199 -0.022684673
-1.133258618 0.502307311 -0.022684673
-1.179580244 0.381022544 -0.022684673
-1.212962396 0.255558128 -0.022684673
-1.233038887 0.127290352 -0.022684673
-1.239589487 -0.002373742 -0.022684673
-1.232542338 -0.132011798 -0.022684673
-1.211974746 -0.260201742 -0.022684673
-1.178112326 -0.385537389 -0.022684673
-1.131326535 -0.506643861 -0.022684673
-1.072130593 -0.622192674 -0.022684673
-1.001173852 -0.730916308 -0.022684673
-0.919234676 -0.831622114 -0.022684673
-0.827211903 -0.923205393 -0.022684673
-0.726114981 -1.004661517 -0.022684673
-0.617052899 -1.075096949 -0.022684673
-0.50122202 -1.133739043 -0.022684673
-0.379892957 -1.179944521 -0.022684673
-0.254396636 -1.213206529 -0.022684673
-0.126109696 -1.233160199 -0.022684673
0.003560611 -1.239586646 -0.022684673
0.133191859 -1.232415376 -0.022684673
0.261362052 -1.211725055 -0.022684673
0.386665219 -1.177742646 -0.022684673
0.50772684 -1.13084092 -0.022684673
0.623218921 -1.07153437 -0.022684673
0.731874567 -1.000473562 -0.022684673
0.832501872 -0.918438002 -0.022684673
0.923997 -0.826327583 -0.022684673
1.00535629 -0.725152716 -0.022684673
1.075687266 -0.616023244 -0.022684673
1.134218428 -0.500136269 -0.022684673
1.180307716 -0.378763022 -0.022684673
1.21344955 -0.253234911 -0.022684673
1.23328038 -0.124928925 -0.022684673
1.233552593 0 -0.067943501
1.226720482 0.129648982 -0.067943501
1.20629983 0.257861826 -0.067943501
1.172516838 0.383218301 -0.067943501
1.125745724 0.504329817 -0.067943501
1.06650458 0.619854807 -0.067943501
0.995449626 0.728513584 -0.067943501
0.913367948 0.829102522 -0.067943501
0.821168775 0.920507384 -0.067943501
0.719873408 1.001715667 -0.067943501
0.610603911 1.071827815 -0.067943501
0.494570675 1.130067187 -0.067943501
0.373059016 1.175788659 -0.067943501
0.247414933 1.208485768 -0.067943501
0.119030204 1.227796323 -0.067943501
-0.010673039 1.233506419 -0.067943501
-0.140258055 1.225552805 -0.067943501
-0.268289415 1.204023584 -0.067943501
-0.393348897 1.169157237 -0.067943501
-0.514051204 1.121339984 -0.067943501
-0.629059298 1.061101503 -0.067943501
-0.737099221 0.989109063 -0.067943501
-0.8369742 0.906160134 -0.067943501
-0.927577908 0.813173552 -0.067943501
-1.007906715 0.711179341 -0.067943501
-1.077070809 0.601307304 -0.067943501
-1.13430405 0.484774508 -0.067943501
-1.178972458 0.362871802 -0.067943501
-1.210581235 0.236949518 -0.067943501
-1.228780247 0.108402514 -0.067943501
-1.233367901 -0.021345279 -0.067943501
-1.224293379 -0.150856628 -0.067943501
-1.201657201 -0.278696918 -0.067943501
-1.16571011 -0.403450046 -0.067943501
-1.116850297 -0.523734106 -0.067943501
-1.055618989 -0.638216696 -0.067943501
-0.982694452 -0.745629676 -0.067943501
-0.898884482 -0.84478322 -0.067943501
-0.805117452 -0.93457899 -0.067943501
-0.702432031 -1.014022308 -0.067943501
-0.59196568 -1.08223317 -0.067943501
-0.474942049 -1.138455994 -0.067943501
-0.352657422 -1.182067994 -0.067943501
-0.226466364 -1.212586074 -0.067943501
-0.097766709 -1.22967218 -0.067943501
0.032015921 -1.233137049 -0.067943501
0.161443907 -1.222942299 -0.067943501
0.289083557 -1.199200858 -0.067943501
0.413520992 -1.162175714 -0.067943501
0.533377801 -1.112276999 -0.067943501
0.647326314 -1.050057448 -0.067943501
0.754104311 -0.976206274 -0.067943501
0.852528996 -0.891541537 -0.067943501
0.941510107 -0.797001078 -0.067943501
1.020061989 -0.693632136 -0.067943501
1.087314511 -0.582579741 -0.067943501
1.14252271 -0.465074034 -0.067943501
1.185075037 -0.342416642 -0.067943501
1.214500135 -0.215966256 -0.067943501
1.230472056 -0.087123584 -0.067943501
1.221503683 0 -0.112871315
1.214604306 0.129644229 -0.112871315
1.193984116 0.257823928 -0.112871315
1.159876048 0.383091112 -0.112871315
1.112665406 0.504030695 -0.112871315
1.052885505 0.619276481 -0.112871315
0.981211652 0.727526591 -0.112871315
0.898453512 0.827558175 -0.112871315
0.805545965 0.918241224 -0.112871315
0.703538544 0.998551333 -0.112871315
0.593583579 1.067581276 -0.112871315
0.476923179 1.124551256 -0.112871315
0.354875202 1.168817709 -0.112871315
0.228818366 1.199880578 -0.112871315
0.100176677 1.21738896 -0.112871315
-0.02959666 1.221145071 -0.112871315
-0.159035658 1.21110648 -0.112871315
-0.286678106 1.187386588 -0.112871315
-0.411082085 1.150253349 -0.112871315
-0.530842263 1.100126238 -0.112871315
-0.644605766 1.037571517 -0.112871315
-0.75108746 0.963295839 -0.112871315
-0.849084472 0.878138261 -0.112871315
-0.937489776 0.783060768 -0.112871315
-1.015304699 0.679137405 -0.112871315
-1.081650202 0.567542146 -0.112871315
-1.135776811 0.44953563 -0.112871315
-1.177073083 0.326450921 -0.112871315
-1.205072514 0.19967845 -0.112871315
-1.219458807 0.070650306 -0.112871315
-1.220069447 -0.059175942 -0.112871315
-1.206897536 -0.188333708 -0.112871315
-1.18009187 -0.315363956 -0.112871315
-1.139955262 -0.438831685 -0.112871315
-1.086941115 -0.557342139 -0.112871315
-1.021648304 -0.669556561 -0.112871315
-0.944814414 -0.774207317 -0.112871315
-0.857307399 -0.870112218 -0.112871315
-0.760115785 -0.956187869 -0.112871315
-0.6543375 -1.031461915 -0.112871315
-0.541167472 -1.095084021 -0.112871315
-0.42188413 -1.146335478 -0.112871315
-0.297834961 -1.184637321 -0.112871315
-0.17042129 -1.209556874 -0.112871315
-0.04108245 -1.220812631 -0.112871315
0.088720479 -1.218277441 -0.112871315
0.217521174 -1.201979944 -0.112871315
0.343864635 -1.172104244 -0.112871315
0.466323619 -1.128987834 -0.112871315
0.583514764 -1.073117779 -0.112871315
0.694114217 -1.005125216 -0.112871315
0.796872588 -0.925778227 -0.112871315
0.890629064 -0.835973156 -0.112871315
0.974324522 -0.736724489 -0.112871315
1.047013494 -0.629153392 -0.112871315
1.107874846 -0.514475045 -0.112871315
1.156221058 -0.393984915 -0.112871315
1.191505983 -0.269044122 -0.112871315
1.213331025 -0.141064065 -0.112871315
1.221449637 -0.011490473 -0.112871315
1.203503729 0 -0.157249232
1.196501362 0.129636861 -0.157249232
1.175575746 0.257765185 -0.157249232
1.140970384 0.38289399 -0.157249232
1.093087967 0.503567197 -0.157249232
1.032485684 0.618380577 -0.157249232
0.959868742 0.725998087 -0.157249232
0.876082158 0.825167424 -0.157249232
0.782100926 0.914734588 -0.157249232
0.679018672 0.99365732 -0.157249232
0.568034925 1.061017224 -0.157249232
0.450441163 1.116030459 -0.157249232
0.327605781 1.158056854 -0.157249232
0.200958171 1.186607365 -0.157249232
0.071972084 1.201349759 -0.157249232
-0.057851516 1.202112485 -0.157249232
-0.187001919 1.188886667 -0.157249232
-0.313976249 1.161826209 -0.157249232
-0.437296952 1.121246004 -0.157249232
-0.55552899 1.067618268 -0.157249232
-0.66729654 1.001567049 -0.157249232
-0.771299004 0.923860959 -0.157249232
-0.866326143 0.835404237 -0.157249232
-0.951272161 0.737226221 -0.157249232
-1.025148572 0.630469372 -0.157249232
-1.087095704 0.516375982 -0.157249232
-1.1363927 0.396273713 -0.157249232
-1.17246591 0.271560152 -0.157249232
-1.194895561 0.143686544 -0.157249232
-1.20342065 0.014140908 -0.157249232
-1.197941971 -0.11556928 -0.157249232
-1.17852328 -0.243934631 -0.157249232
-1.145390543 -0.369461403 -0.157249232
-1.098929315 -0.490688888 -0.157249232
-1.039680248 -0.606206406 -0.157249232
-0.968332802 -0.714669721 -0.157249232
-0.88571722 -0.814816686 -0.157249232
-0.792794871 -0.905481926 -0.157249232
-0.690647057 -0.985610404 -0.157249232
-0.580462435 -1.054269694 -0.157249232
-0.463523184 -1.110660832 -0.157249232
-0.341190083 -1.154127615 -0.157249232
-0.214886678 -1.184164237 -0.157249232
-0.086082715 -1.200421173 -0.157249232
0.043722961 -1.202709245 -0.157249232
0.173019849 -1.191001829 -0.157249232
0.300303368 -1.16543516 -0.157249232
0.424092367 -1.126306748 -0.157249232
0.542946358 -1.074071915 -0.157249232
0.65548228 -1.009338499 -0.157249232
0.760390594 -0.93285978 -0.157249232
0.856450521 -0.845525713 -0.157249232
0.942544245 -0.748352571 -0.157249232
1.017669927 -0.642471124 -0.157249232
1.080953355 -0.529113475 -0.157249232
1.131658124 -0.409598726 -0.157249232
1.1691942 -0.285317626 -0.157249232
1.193124791 -0.157716389 -0.157249232
1.203171424 -0.028279864 -0.157249232
1.179640426 0 -0.200861046
1.17249669 0.129626568 -0.200861046
1.151152004 0.257683136 -0.200861046
1.115864889 0.382618718 -0.200861046
1.067062734 0.50292013 -0.200861046
1.005336615 0.617130315 -0.200861046
0.931434142 0.723865991 -0.200861046
0.846250401 0.821834407 -0.200861046
0.750817114 0.909848996 -0.200861046
0.646290142 0.98684375 -0.200861046
0.533935485 1.051886131 -0.200861046
0.415113953 1.104188363 -0.200861046
0.291264677 1.143116977 -0.200861046
0.163887685 1.16820048 -0.200861046
0.034525732 1.179135068 -0.200861046
-0.095254387 1.175788304 -0.200861046
-0.223880812 1.158200724 -0.200861046
-0.349795655 1.126585342 -0.200861046
-0.471473872 1.081325077 -0.200861046
-0.58744173 1.022968107 -0.200861046
-0.69629466 0.952221235 -0.200861046
-0.796714265 0.869941328 -0.200861046
-0.887484291 0.777124937 -0.200861046
-0.967505357 0.674896227 -0.200861046
-1.035808271 0.564493365 -0.200861046
-1.091565768 0.447253518 -0.200861046
-1.134102527 0.324596662 -0.200861046
-1.162903356 0.198008383 -0.200861046
-1.177619427 0.069021883 -0.200861046
-1.178072503 -0.060800592 -0.200861046
-1.164257097 -0.189886667 -0.200861046
-1.136340537 -0.316672887 -0.200861046
-1.094660941 -0.439623656 -0.200861046
-1.03972312 -0.557249826 -0.200861046
-0.972192465 -0.668126743 -0.200861046
-0.892886889 -0.770911498 -0.200861046
-0.802766919 -0.864359189 -0.200861046
-0.702924062 -0.947338006 -0.200861046
-0.594567587 -1.018842932 -0.200861046
-0.479009876 -1.078007919 -0.200861046
-0.357650533 -1.124116378 -0.200861046
-0.231959428 -1.156609856 -0.200861046
-0.103458895 -1.175094801 -0.200861046
0.026294703 -1.179347329 -0.200861046
0.155729826 -1.169315935 -0.200861046
0.283278794 -1.145122115 -0.200861046
0.407396769 -1.107058899 -0.200861046
0.526580469 -1.055587298 -0.200861046
0.639386375 -0.99133072 -0.200861046
0.744448213 -0.915067425 -0.200861046
0.840493505 -0.82772109 -0.200861046
0.926358975 -0.730349631 -0.200861046
1.001004647 -0.624132383 -0.200861046
1.063526432 -0.510355819 -0.200861046
1.113167085 -0.390397969 -0.200861046
1.149325372 -0.265711729 -0.200861046
1.171563354 -0.137807264 -0.200861046
1.17961169 -0.008233716 -0.200861046
1.150030033 0 -0.243494286
1.14270275 0.129612896 -0.243494286
1.12081427 0.257574164 -0.243494286
1.084643513 0.382253225 -0.243494286
1.034651394 0.502061321 -0.243494286
0.971474952 0.615471766 -0.243494286
0.89591923 0.721039396 -0.243494286
0.808947016 0.817418988 -0.243494286
0.711666577 0.9033824 -0.243494286
0.605317536 0.977834218 -0.243494286
0.491255074 1.039825721 -0.243494286
0.370932661 1.088566965 -0.243494286
0.24588354 1.123436853 -0.243494286
0.117701181 1.143991044 -0.243494286
-0.011981016 1.149967622 -0.243494286
-0.141510542 1.141290429 -0.243494286
-0.269236832 1.118070036 -0.243494286
-0.393532299 1.080602335 -0.243494286
-0.512813076 1.029364769 -0.243494286
-0.625559193 0.965010245 -0.243494286
-0.730333955 0.888358819 -0.243494286
-0.82580224 0.800387242 -0.243494286
-0.910747518 0.702216516 -0.243494286
-0.984087352 0.595097607 -0.243494286
-1.044887187 0.480395506 -0.243494286
-1.092372268 0.359571838 -0.243494286
-1.1259375 0.234166228 -0.243494286
-1.145155172 0.105776692 -0.243494286
-1.149780397 -0.023960732 -0.243494286
-1.139754235 -0.153392829 -0.243494286
-1.11520445 -0.280870278 -0.243494286
-1.076443871 -0.404768661 -0.243494286
-1.023966418 -0.523509171 -0.243494286
-0.958440797 -0.635578724 -0.243494286
-0.880701988 -0.739549245 -0.243494286
-0.791740596 -0.834095861 -0.243494286
-0.692690237 -0.918013787 -0.243494286
-0.584813087 -0.990233675 -0.243494286
-0.469483798 -1.049835244 -0.243494286
-0.348171987 -1.096059006 -0.243494286
-0.2224235 -1.128315942 -0.243494286
-0.093840722 -1.146195008 -0.243494286
0.035937847 -1.149468376 -0.243494286
0.165258468 -1.138094335 -0.243494286
0.292473238 -1.112217821 -0.243494286
0.41596109 -1.072168573 -0.243494286
0.534148445 -1.018456929 -0.243494286
0.645529271 -0.951767323 -0.243494286
0.748684267 -0.872949567 -0.243494286
0.842298952 -0.783008016 -0.243494286
0.925180416 -0.683088775 -0.243494286
0.99627252 -0.574465092 -0.243494286
1.054669354 -0.458521134 -0.243494286
1.099626781 -0.336734346 -0.243494286
1.130571918 -0.210656631 -0.243494286
1.147110438 -0.081894567 -0.243494286
1.11481681 0 -0.284941245
1.107258599 0.129595198 -0.284941245
1.084686451 0.257433143 -0.284941245
1.047406435 0.381780408 -0.284941245
0.995924051 0.5009509 -0.284941245
0.930937378 0.613328719 -0.284941245
0.853327606 0.717390072 -0.284941245
0.76414709 0.811723934 -0.284941245
0.664605077 0.895051178 -0.284941245
0.556051313 0.966241924 -0.284941245
0.43995774 1.024330858 -0.284941245
0.317898535 1.068530318 -0.284941245
0.191528766 1.098240981 -0.284941245
0.062561951 1.113059981 -0.284941245
-0.067253175 1.112786381 -0.284941245
-0.196156378 1.09742389 -0.284941245
-0.322399788 1.067180817 -0.284941245
-0.444271599 1.022467244 -0.284941245
-0.560119284 0.963889468 -0.284941245
-0.668372 0.892241778 -0.284941245
-0.767561886 0.808495683 -0.284941245
-0.856343974 0.713786746 -0.284941245
-0.933514416 0.609399175 -0.284941245
-0.998026816 0.496748422 -0.284941245
-1.049006413 0.37736198 -0.284941245
-1.085761949 0.252858677 -0.284941245
-1.107795032 0.124926721 -0.284941245
-1.114806906 -0.004699185 -0.284941245
-1.106702491 -0.134261372 -0.284941245
-1.08359168 -0.262003035 -0.284941245
-1.045787846 -0.386192052 -0.284941245
-0.993803591 -0.505144477 -0.284941245
-0.928343799 -0.617247365 -0.284941245
-0.850296077 -0.720980653 -0.284941245
-0.760718716 -0.814937762 -0.284941245
-0.660826345 -0.897844675 -0.284941245
-0.551973462 -0.968577212 -0.284941245
-0.435636064 -1.026176271 -0.284941245
-0.313391632 -1.069860834 -0.284941245
-0.18689775 -1.099038557 -0.284941245
-0.057869616 -1.113313804 -0.284941245
0.071943204 -1.112493009 -0.284941245
0.200780506 -1.096587301 -0.284941245
0.326895313 -1.065812354 -0.284941245
0.448577565 -1.020585463 -0.284941245
0.564177303 -0.961519886 -0.284941245
0.672127047 -0.889416524 -0.284941245
0.770963045 -0.805253068 -0.284941245
0.859345126 -0.710170736 -0.284941245
0.936074867 -0.605458804 -0.284941245
1.000111847 -0.492537118 -0.284941245
1.050587753 -0.372936847 -0.284941245
1.086818155 -0.248279717 -0.284941245
1.108311783 -0.120256025 -0.284941245
1.074172311 0 -0.325
1.066328797 0.12957257 -0.325
1.042912799 0.257252885 -0.325
1.004266282 0.381176323 -0.325
0.950953632 0.499533127 -0.325
0.883753417 0.610594834 -0.325
0.803647019 0.712739519 -0.325
0.711804298 0.804475479 -0.325
0.609566508 0.884463016 -0.325
0.498426714 0.951534006 -0.325
0.380007981 1.004708957 -0.325
0.256039676 1.04321131 -0.325
0.128332212 1.066478784 -0.325
-0.001249393 1.074171584 -0.325
-0.130812753 1.066177367 -0.325
-0.258465746 1.042612877 -0.325
-0.382344149 1.003822248 -0.325
-0.500638864 0.95037197 -0.325
-0.611622334 0.883042623 -0.325
-0.713673777 0.802817473 -0.325
-0.80530285 0.710868113 -0.325
-0.885171418 0.608537357 -0.325
-0.952113094 0.497319626 -0.325
-1.005150273 0.378839125 -0.325
-1.04350841 0.254826121 -0.325
-1.066627329 0.127091681 -0.325
-1.074169405 -0.002498785 -0.325
-1.066024494 -0.132052759 -0.325
-1.042311545 -0.259678257 -0.325
-1.003376856 -0.383511458 -0.325
-0.949789023 -0.501743924 -0.325
-0.882330634 -0.612649007 -0.325
-0.80198684 -0.714607069 -0.325
-0.709930967 -0.806129131 -0.325
-0.607507384 -0.885878622 -0.325
-0.496211866 -0.952690893 -0.325
-0.377669756 -1.005590229 -0.325
-0.253612221 -1.043804098 -0.325
-0.125850977 -1.06677443 -0.325
0.003748173 -1.074165772 -0.325
0.133292586 -1.06587018 -0.325
0.260890417 -1.042008802 -0.325
0.384678248 -1.002930107 -0.325
0.502848305 -0.949204792 -0.325
0.61367485 -0.881617452 -0.325
0.715539394 -0.801155122 -0.325
0.806954322 -0.70899286 -0.325
0.886584628 -0.606476588 -0.325
0.953267403 -0.495103435 -0.325
1.006028825 -0.376499876 -0.325
1.044098374 -0.252397978 -0.325
1.066920089 -0.124610103 -0.325
1.028294553 0 -0.363475387
1.020102008 0.12954374 -0.363475387
0.995654916 0.257023299 -0.363475387
0.955342821 0.380407389 -0.363475387
0.899808067 0.497729976 -0.363475387
0.829935558 0.607121616 -0.363475387
0.746838659 0.706839235 -0.363475387
0.651841455 0.795293911 -0.363475387
0.546457654 0.871076184 -0.363475387
0.432366468 0.932978523 -0.363475387
0.311385851 0.98001456 -0.363475387
0.185443539 1.011434813 -0.363475387
0.056546325 1.026738623 -0.363475387
-0.073251912 1.025682136 -0.363475387
-0.201882935 1.008282187 -0.363475387
-0.327297108 0.974816029 -0.363475387
-0.44749605 0.925816922 -0.363475387
-0.560564485 0.862065627 -0.363475387
-0.664700752 0.784577975 -0.363475387
-0.758245519 0.69458867 -0.363475387
-0.839708222 0.593531625 -0.363475387
-0.907790815 0.483017106 -0.363475387
-0.961408453 0.364806077 -0.363475387
-0.999706781 0.240782142 -0.363475387
-1.022075543 0.112921527 -0.363475387
-1.028158311 -0.016738406 -0.363475387
-1.017858161 -0.146131626 -0.363475387
-0.991339216 -0.273196349 -0.363475387
-0.949024038 -0.395907897 -0.363475387
-0.891586884 -0.512310955 -0.363475387
-0.819942974 -0.620550728 -0.363475387
-0.735233898 -0.718902499 -0.363475387
-0.63880943 -0.805799106 -0.363475387
-0.532206021 -0.879855919 -0.363475387
-0.417122315 -0.939892899 -0.363475387
-0.295392083 -0.984953402 -0.363475387
-0.168955003 -1.014319424 -0.363475387
-0.039825754 -1.027523039 -0.363475387
0.089938088 -1.024353859 -0.363475387
0.218268835 -1.00486238 -0.363475387
0.343121635 -0.969359186 -0.363475387
0.462507053 -0.918409992 -0.363475387
0.574522774 -0.852826635 -0.363475387
0.677383912 -0.773654136 -0.363475387
0.769451455 -0.682154049 -0.363475387
0.849258375 -0.579784357 -0.363475387
0.91553301 -0.468176243 -0.363475387
0.967219325 -0.349108098 -0.363475387
1.003493738 -0.224477181 -0.363475387
1.023778243 -0.096269392 -0.363475387
0.977407047 0 -0.400179959
0.968789192 0.1295069 -0.400179959
0.943087595 0.256730059 -0.400179959
0.900755481 0.379426011 -0.400179959
0.84253934 0.49543112 -0.400179959
0.769465762 0.602699739 -0.400179959
0.682823335 0.699340281 -0.400179959
0.584139921 0.783648574 -0.400179959
0.475155716 0.854137917 -0.400179959
0.357792559 0.909565292 -0.400179959
0.234120046 0.948953286 -0.400179959
0.106319034 0.971607327 -0.400179959
-0.023356821 0.977127931 -0.400179959
-0.1526208 0.965417747 -0.400179959
-0.279193445 0.936683274 -0.400179959
-0.40084276 0.891431218 -0.400179959
-0.515423567 0.83045956 -0.400179959
-0.620915335 0.754843482 -0.400179959
-0.715457809 0.665916405 -0.400179959
-0.797383817 0.56524648 -0.400179959
-0.865248665 0.454608933 -0.400179959
-0.917855618 0.335954759 -0.400179959
-0.954276997 0.211376319 -0.400179959
-0.973870544 0.083070445 -0.400179959
-0.976290744 -0.046700303 -0.400179959
-0.961494919 -0.175647533 -0.400179959
-0.92974398 -0.301497373 -0.400179959
-0.881597828 -0.422030574 -0.400179959
-0.817905476 -0.535121638 -0.400179959
-0.739790084 -0.638776305 -0.400179959
-0.648629146 -0.731166715 -0.400179959
-0.546030207 -0.810663647 -0.400179959
-0.433802507 -0.875865241 -0.400179959
-0.313925083 -0.925621725 -0.400179959
-0.188511868 -0.959055687 -0.400179959
-0.059774412 -0.975577549 -0.400179959
0.070017112 -0.974895963 -0.400179959
0.198573947 -0.957022948 -0.400179959
0.323629106 -0.922273678 -0.400179959
0.442977351 -0.871260926 -0.400179959
0.554514082 -0.804884258 -0.400179959
0.656272447 -0.724314166 -0.400179959
0.746458026 -0.630971434 -0.400179959
0.823480478 -0.526502077 -0.400179959
0.885981579 -0.412748322 -0.400179959
0.932859177 -0.291716115 -0.400179959
0.963286627 -0.165539751 -0.400179959
0.976727369 -0.03644424 -0.400179959
0.921757712 0 -0.434934894
0.912621244 0.129459433 -0.434934894
0.885392961 0.256352461 -0.434934894
0.840612637 0.378163554 -0.434934894
0.779167998 0.492477928 -0.434934894
0.702277123 0.597029414 -0.434934894
0.611464298 0.689745382 -0.434934894
0.508529797 0.768787828 -0.434934894
0.395514196 0.832589815 -0.434934894
0.274657915 0.879886532 -0.434934894
0.148356813 0.909740367 -0.434934894
0.019114684 0.921559498 -0.434934894
-0.110506375 0.915109622 -0.434934894
-0.237936754 0.890518602 -0.434934894
-0.360650272 0.84827393 -0.434934894
-0.476214255 0.789213066 -0.434934894
-0.58233776 0.714506831 -0.434934894
-0.676916995 0.625636205 -0.434934894
-0.758077019 0.524362959 -0.434934894
-0.824208915 0.412694735 -0.434934894
-0.874001683 0.292845246 -0.434934894
-0.906468231 0.167190389 -0.434934894
-0.920964941 0.038221148 -0.434934894
-0.917204432 -0.09150579 -0.434934894
-0.89526125 -0.219418716 -0.434934894
-0.855570399 -0.342981883 -0.434934894
-0.798918709 -0.459745772 -0.434934894
-0.726429246 -0.567395656 -0.434934894
-0.63953904 -0.663797481 -0.434934894
-0.539970604 -0.747040177 -0.434934894
-0.429697784 -0.81547354 -0.434934894
-0.31090663 -0.867740944 -0.434934894
-0.18595206 -0.902806242 -0.434934894
-0.057311173 -0.919974298 -0.434934894
0.072465851 -0.918904772 -0.434934894
0.200806311 -0.899618866 -0.434934894
0.325165984 -0.862498906 -0.434934894
0.443079563 -0.808280756 -0.434934894
0.552209527 -0.738039238 -0.434934894
0.650392483 -0.653166822 -0.434934894
0.73568205 -0.555346019 -0.434934894
0.806387447 -0.446516029 -0.434934894
0.86110701 -0.3288343 -0.434934894
0.898755976 -0.204633756 -0.434934894
0.918587994 -0.07637655 -0.434934894
0.861617666 0 -0.46757087
0.851845819 0.129397463 -0.46757087
0.822751928 0.25585986 -0.46757087
0.774995917 0.3765187 -0.46757087
0.709661014 0.488637132 -0.46757087
0.628229183 0.589672024 -0.46757087
0.532547506 0.677331644 -0.46757087
0.424786289 0.749627649 -0.46757087
0.30738983 0.804920179 -0.46757087
0.183020984 0.841955059 -0.46757087
0.054500753 0.859892244 -0.46757087
-0.075255695 0.85832487 -0.46757087
-0.203305151 0.837288492 -0.46757087
-0.326743125 0.797260267 -0.46757087
-0.442769729 0.739148138 -0.46757087
-0.548753182 0.664270237 -0.46757087
-0.642289508 0.574324986 -0.46757087
-0.721257064 0.471352575 -0.46757087
-0.783864663 0.357688681 -0.46757087
-0.828692205 0.235911491 -0.46757087
-0.854722886 0.108783226 -0.46757087
-0.861366264 -0.020812522 -0.46757087
-0.848471651 -0.149936189 -0.46757087
-0.816331528 -0.275658919 -0.46757087
-0.765674916 -0.395128999 -0.46757087
-0.697650837 -0.505636542 -0.46757087
-0.613802251 -0.604674954 -0.46757087
-0.516031058 -0.689997789 -0.46757087
-0.406554961 -0.759669709 -0.46757087
-0.287857156 -0.812110375 -0.46757087
-0.162630013 -0.846130298 -0.46757087
-0.033714006 -0.86095782 -0.46757087
0.095966721 -0.856256615 -0.46757087
0.223470678 -0.832133318 -0.46757087
0.345905747 -0.789135107 -0.46757087
0.460494788 -0.728237291 -0.46757087
0.564638629 -0.65082119 -0.46757087
0.65597502 -0.558642798 -0.46757087
0.732432219 -0.453792957 -0.46757087
0.79227598 -0.33864993 -0.46757087
0.834148893 -0.215825455 -0.46757087
0.857101174 -0.088105507 -0.46757087
0.797279906 0 -0.497928888
0.786722863 0.129315062 -0.497928888
0.755331312 0.255205519 -0.497928888
0.703936586 0.374337457 -0.497928888
0.633899752 0.483555946 -0.497928888
0.547075571 0.579968592 -0.497928888
0.445763379 0.661022131 -0.497928888
0.332646191 0.724570052 -0.497928888
0.210719649 0.768929436 -0.497928888
0.083212693 0.79292553 -0.497928888
-0.046497957 0.795922853 -0.497928888
-0.174977217 0.777842029 -0.497928888
-0.298822616 0.739161885 -0.497928888
-0.414754401 0.680906774 -0.497928888
-0.519702389 0.604619447 -0.497928888
-0.610887279 0.512320193 -0.497928888
-0.685894255 0.406453342 -0.497928888
-0.742736932 0.289822529 -0.497928888
-0.779909965 0.165516447 -0.497928888
-0.796428915 0.03682705 -0.497928888
-0.791856315 -0.092837625 -0.497928888
-0.76631326 -0.220043713 -0.497928888
-0.720476198 -0.34142246 -0.497928888
-0.655559016 -0.453759435 -0.497928888
-0.573280893 -0.554079657 -0.497928888
-0.475820771 -0.63972638 -0.497928888
-0.365759654 -0.708431453 -0.497928888
-0.246012251 -0.758375382 -0.497928888
-0.119749792 -0.78823552 -0.497928888
0.00968396 -0.797221092 -0.497928888
0.138861254 -0.785094135 -0.497928888
0.264361134 -0.752175803 -0.497928888
0.382860031 -0.699337862 -0.497928888
0.491219779 -0.627979599 -0.497928888
0.586570724 -0.539990772 -0.497928888
0.666387721 -0.437701557 -0.497928888
0.728557004 -0.323820844 -0.497928888
0.771432166 -0.201364497 -0.497928888
0.793877759 -0.073575484 -0.497928888
0.729057878 0 -0.525861046
0.717517957 0.129202827 -0.525861046
0.683263514 0.254315471 -0.525861046
0.627378946 0.37137723 -0.525861046
0.551633394 0.476682271 -0.525861046
0.458424741 0.566896945 -0.525861046
0.3507037 0.639165318 -0.525861046
0.231880405 0.691199585 -0.525861046
0.105716454 0.721352494 -0.525861046
-0.023794171 0.728669491 -0.525861046
-0.152551541 0.712918941 -0.525861046
-0.276479576 0.674599461 -0.525861046
-0.391655076 0.614924134 -0.525861046
-0.494431921 0.535782106 -0.525861046
-0.581556496 0.439678782 -0.525861046
-0.650270692 0.329656513 -0.525861046
-0.698399218 0.209198282 -0.525861046
-0.724418466 0.082117446 -0.525861046
-0.727504743 -0.04756299 -0.525861046
-0.707560346 -0.17573772 -0.525861046
-0.665216656 -0.298349107 -0.525861046
-0.601814151 -0.411515634 -0.525861046
-0.519359969 -0.511654778 -0.525861046
-0.420464368 -0.595596427 -0.525861046
-0.308258094 -0.660683235 -0.525861046
-0.18629327 -0.704854742 -0.525861046
-0.058430945 -0.726712607 -0.525861046
0.071281133 -0.725564876 -0.525861046
0.198736658 -0.701447881 -0.525861046
0.319900762 -0.655125096 -0.525861046
0.430937742 -0.588062965 -0.525861046
0.528332493 -0.50238448 -0.525861046
0.609001781 -0.40080197 -0.525861046
0.670391853 -0.286531241 -0.525861046
0.710559278 -0.163189771 -0.525861046
0.728232473 -0.034682189 -0.525861046
0.657283953 0 -0.551231263
0.644491699 0.129045127 -0.551231263
0.60661287 0.253067225 -0.551231263
0.545121885 0.367238785 -0.551231263
0.462412254 0.467115727 -0.551231263
0.361703416 0.548810381 -0.551231263
0.246915421 0.609142816 -0.551231263
0.122516345 0.645764617 -0.551231263
-0.00665163 0.657250295 -0.551231263
-0.135560693 0.643152776 -0.551231263
-0.259193111 0.604020799 -0.551231263
-0.372736544 0.541377561 -0.551231263
-0.47177136 0.457661423 -0.551231263
-0.55244267 0.356131003 -0.551231263
-0.611610376 0.240738329 -0.551231263
-0.646971399 0.115975015 -0.551231263
-0.657149326 -0.013302579 -0.551231263
-0.641747985 -0.142062376 -0.551231263
-0.601366868 -0.265292453 -0.551231263
-0.537577792 -0.37819613 -0.551231263
-0.452863721 -0.476378678 -0.551231263
-0.350522116 -0.556018382 -0.551231263
-0.234536582 -0.614015298 -0.551231263
-0.109421808 -0.648111921 -0.551231263
0.019952166 -0.656981054 -0.551231263
0.148549509 -0.64027747 -0.551231263
0.271364624 -0.598651347 -0.551231263
0.383616982 -0.533722967 -0.551231263
0.480937207 -0.44801964 -0.551231263
0.559537149 -0.344877332 -0.551231263
0.616357337 -0.228310815 -0.551231263
0.649186068 -0.102857394 -0.551231263
0.582307807 0 -0.573915935
0.567881345 0.128814439 -0.573915935
0.525316781 0.251246216 -0.573915935
0.456723157 0.361228929 -0.573915935
0.365499237 0.453313015 -0.573915935
0.256165099 0.522935774 -0.573915935
0.134138169 0.566647451 -0.573915935
0.005464792 0.582282164 -0.573915935
-0.123479362 0.569065224 -0.573915935
-0.246305205 0.527651521 -0.573915935
-0.356926806 0.460093074 -0.573915935
-0.449862947 0.369737354 -0.573915935
-0.520508709 0.261061421 -0.573915935
-0.565363649 0.139450086 -0.573915935
-0.582205236 0.010929102 -0.573915935
-0.570198982 -0.118133411 -0.573915935
-0.529939789 -0.2413425 -0.573915935
-0.463422469 -0.352593246 -0.573915935
-0.373942907 -0.446373257 -0.573915935
-0.265934749 -0.518035801 -0.573915935
-0.14474972 -0.564030053 -0.573915935
-0.01639245 -0.582077031 -0.573915935
0.112777055 -0.57128252 -0.573915935
0.236358539 -0.532181381 -0.573915935
0.348228632 -0.466711047 -0.573915935
0.442844253 -0.378115524 -0.573915935
0.515517267 -0.270784655 -0.573915935
0.56264678 -0.150036606 -0.573915935
0.581897559 -0.021854354 -0.573915935
0.504494716 0 -0.593804547
0.487866069 0.128458621 -0.593804547
0.439076321 0.248448994 -0.593804547
0.361341789 0.352061116 -0.593804547
0.259786889 0.43246467 -0.593804547
0.141106321 0.484359293 -0.593804547
0.013123744 0.504323989 -0.593804547
-0.115723977 0.491042645 -0.593804547
-0.236942943 0.445390795 -0.593804547
-0.342542159 0.370377898 -0.593804547
-0.425560316 0.270948954 -0.593804547
-0.480524691 0.153658517 -0.593804547
-0.503811923 0.026238605 -0.593804547
-0.493886872 -0.102911008 -0.593804547
-0.451403818 -0.225276523 -0.593804547
-0.379163326 -0.332791362 -0.593804547
-0.281927635 -0.418367933 -0.593804547
-0.166106713 -0.476364858 -0.593804547
-0.039335707 -0.502958865 -0.593804547
0.090028386 -0.496396825 -0.593804547
0.21345763 -0.457111319 -0.593804547
0.322815323 -0.387692127 -0.593804547
0.410892388 -0.2927155 -0.593804547
0.47188261 -0.178442485 -0.593804547
0.501765393 -0.052406187 -0.593804547
0.424223777 0 -0.610800204
0.404493943 0.127868929 -0.610800204
0.347139634 0.243843982 -0.610800204
0.257495728 0.337137602 -0.610800204
0.143900558 0.399071976 -0.610800204
0.01692031 0.423886207 -0.610800204
-0.111633801 0.409272168 -0.610800204
-0.229804164 0.356589202 -0.610800204
-0.326599025 0.270737677 -0.610800204
-0.393014898 0.159703172 -0.610800204
-0.422874032 0.033813691 -0.610800204
-0.413399047 -0.09522101 -0.610800204
-0.365471269 -0.215398619 -0.610800204
-0.283548755 -0.315540674 -0.610800204
-0.175251624 -0.386332346 -0.610800204
-0.050653259 -0.421188865 -0.610800204
0.078656678 -0.416868013 -0.610800204
0.200650272 -0.373771697 -0.610800204
0.303980148 -0.295908572 -0.610800204
0.379034956 -0.190521166 -0.610800204
0.418833388 -0.067412213 -0.610800204
0.341886063 0 -0.624820102
0.317507819 0.12678669 -0.624820102
0.247849677 0.235492288 -0.624820102
0.142845608 0.31061425 -0.624820102
0.017470278 0.341439408 -0.624820102
-0.110396494 0.323571776 -0.624820102
-0.222519584 0.259559462 -0.624820102
-0.302909081 0.158531286 -0.624820102
-0.34010061 0.034894909 -0.624820102
-0.328790276 -0.093717843 -0.624820102
-0.270591049 -0.208965462 -0.624820102
-0.17380274 -0.294412445 -0.624820102
-0.052228363 -0.337873169 -0.624820102
0.076794319 -0.333149685 -0.624820102
0.194865337 -0.280915611 -0.624820102
0.285146542 -0.188620066 -0.624820102
0.334762902 -0.06942535 -0.624820102
0.257882714 0 -0.63579594
0.225857584 0.124466244 -0.63579594
0.137736267 0.21801884 -0.63579594
0.015405431 0.257422157 -0.63579594
-0.110751648 0.232889602 -0.63579594
