# .PCD v.5 - Point Cloud Data file format
VERSION .5
FIELDS x y z
SIZE 4 4 4
TYPE F F F
COUNT 1 1 1
WIDTH 1304
HEIGHT 1
POINTS 1304
DATA ascii
-0.917479134 0.479229183 0.35
-0.968587039 0.365058515 0.35
-1.005549865 0.245556595 0.35
-1.027827812 0.122468608 0.35
-1.035095538 -0.00240789 0.35
-1.027246906 -0.127249223 0.35
-1.004396537 -0.25023223 0.35
-0.966878132 -0.369560888 0.35
-0.915239604 -0.483492543 0.35
-0.850235074 -0.590363355 0.35
-0.772813856 -0.688612602 0.35
-0.684106597 -0.776805468 0.35
-0.585408763 -0.853654 0.35
-0.478161719 -0.918035915 0.35
-0.363931683 -0.969010991 0.35
-0.244386851 -1.005834797 0.35
-0.121273036 -1.027969563 0.35
0.00361183 -1.035092038 0.35
0.12844395 -1.027098205 0.35
0.251400296 -1.004104807 0.35
0.370685235 -0.966447633 0.35
0.484556751 -0.914676624 0.35
0.591351883 -0.849547834 0.35
0.689511013 -0.772012393 0.35
0.777600642 -0.683202615 0.35
0.854334324 -0.584415463 0.35
0.918591455 -0.477093608 0.35
0.969433633 -0.362804359 0.35
1.006118368 -0.243216778 0.35
1.028109923 -0.1200773 0.35
1.074264358 0 0.306859803
1.066981083 0.124881058 0.306859803
1.045230018 0.248068784 0.306859803
1.009306095 0.367892806 0.306859803
0.959696429 0.482728366 0.306859803
0.897073704 0.591018342 0.306859803
0.822287056 0.691294371 0.306859803
0.73635056 0.782196755 0.306859803
0.640429477 0.862492896 0.306859803
0.535824453 0.931094016 0.306859803
0.423953886 0.987069913 0.306859803
0.306334693 1.029661579 0.306859803
0.184561737 1.058291489 0.306859803
0.060286205 1.072571436 0.306859803
-0.064806781 1.072307788 0.306859803
-0.189021016 1.057504121 0.306859803
-0.310672209 1.028361167 0.306859803
-0.428110825 0.98527409 0.306859803
-0.539744448 0.928827133 0.306859803
-0.644059374 0.85978569 0.306859803
-0.739641141 0.779085935 0.306859803
-0.825193701 0.687822119 0.306859803
-0.899557 0.587231739 0.306859803
-0.961722704 0.478678757 0.306859803
-1.010847873 0.363635103 0.306859803
-1.046266393 0.243660718 0.306859803
-1.067498004 0.120382401 0.306859803
-1.074254814 -0.004528248 0.306859803
-1.066445205 -0.129377496 0.306859803
-1.04417507 -0.252472442 0.306859803
-1.007746384 -0.372143973 0.306859803
-0.957653102 -0.486769397 0.306859803
-0.894574469 -0.594794444 0.306859803
-0.819365802 -0.694754341 0.306859803
-0.733046896 -0.785293677 0.306859803
-0.6367882 -0.865184778 0.306859803
-0.531894937 -0.933344356 0.306859803
-0.419789415 -0.988848198 0.306859803
-0.301991733 -1.030943696 0.306859803
-0.180099178 -1.059060054 0.306859803
-0.055764557 -1.072816026 0.306859803
0.069326206 -1.072025087 0.306859803
0.193476937 -1.056697963 0.306859803
0.315004206 -1.027042483 0.306859803
0.432260157 -0.98346076 0.306859803
0.543654852 -0.926543746 0.306859803
0.647677828 -0.857063208 0.306859803
0.742918579 -0.775961272 0.306859803
0.828085683 -0.684337645 0.306859803
0.902024312 -0.583434702 0.306859803
0.96373189 -0.474620643 0.306859803
1.012371691 -0.359370938 0.306859803
1.047284179 -0.239248322 0.306859803
1.067995957 -0.115881605 0.306859803
1.108196669 0 0.262224615
1.101135922 0.124898111 0.262224615
1.080043655 0.248204675 0.262224615
1.045188641 0.368348424 0.262224615
0.997015031 0.483798394 0.262224615
0.936136688 0.593083433 0.262224615
0.863329372 0.694810948 0.262224615
0.77952085 0.787684647 0.262224615
0.685779073 0.870521062 0.262224615
0.583298573 0.94226463 0.262224615
0.473385234 1.002001137 0.262224615
0.357439656 1.048969375 0.262224615
0.236939308 1.082570839 0.262224615
0.113419696 1.102377354 0.262224615
-0.011545196 1.108136529 0.262224615
-0.13636297 1.099774976 0.262224615
-0.259443103 1.077399245 0.262224615
-0.379217212 1.041294465 0.262224615
-0.494159044 0.991920711 0.262224615
-0.602803922 0.92990714 0.262224615
-0.703767409 0.856043978 0.262224615
-0.79576295 0.771272445 0.262224615
-0.877618268 0.676672766 0.262224615
-0.9482903 0.573450403 0.262224615
-1.006878488 0.462920693 0.262224615
-1.052636256 0.346492093 0.262224615
-1.084980524 0.225648223 0.262224615
-1.103499136 0.101928971 0.262224615
-1.107956113 -0.023089139 0.262224615
-1.098294663 -0.147813029 0.262224615
-1.074637897 -0.270653372 0.262224615
-1.037287269 -0.390044841 0.262224615
-0.98671873 -0.50446606 0.262224615
-0.923576662 -0.612458984 0.262224615
-0.84866567 -0.712647485 0.262224615
-0.762940328 -0.803754883 0.262224615
-0.667493014 -0.88462022 0.262224615
-0.563539991 -0.954213045 0.262224615
-0.452405908 -1.011646555 0.262224615
-0.335506921 -1.056188886 0.262224615
-0.214332648 -1.087272447 0.262224615
-0.090427182 -1.104501146 0.262224615
0.034630576 -1.107655443 0.262224615
0.159247044 -1.096695143 0.262224615
0.281834264 -1.07175991 0.262224615
0.400830136 -1.033167489 0.262224615
0.514718321 -0.981409653 0.262224615
0.62204757 -0.917145941 0.262224615
0.721450211 -0.841195251 0.262224615
0.811659579 -0.754525404 0.262224615
0.891526157 -0.658240814 0.262224615
0.960032222 -0.553568414 0.262224615
1.01630482 -0.44184202 0.262224615
1.05962688 -0.324485335 0.262224615
1.08944636 -0.202993809 0.262224615
1.105383277 -0.078915579 0.262224615
1.136729957 0 0.216311896
1.129846081 0.124911287 0.216311896
1.109277827 0.248309683 0.216311896
1.075274313 0.368700622 0.216311896
1.028247379 0.484625963 0.216311896
0.968766602 0.594681651 0.216311896
0.897552398 0.697534723 0.216311896
0.815467291 0.79193945 0.216311896
0.723505475 0.87675243 0.216311896
0.622780764 0.950946432 0.216311896
0.514513108 1.013622838 0.216311896
0.400013814 1.06402253 0.216311896
0.280669665 1.101535081 0.216311896
0.157926125 1.125706149 0.216311896
0.033269828 1.136242982 0.216311896
-0.091789424 1.13301796 0.216311896
-0.215736948 1.116070143 0.216311896
-0.337071527 1.0856048 0.216311896
-0.454323591 1.041990917 0.216311896
-0.566073016 0.985756733 0.216311896
-0.670966323 0.917583342 0.216311896
-0.767733076 0.83829644 0.216311896
-0.855201261 0.748856327 0.216311896
-0.93231149 0.650346278 0.216311896
-0.998129825 0.543959417 0.216311896
-1.051859093 0.430984274 0.216311896
-1.09284854 0.31278917 0.216311896
-1.120601713 0.190805652 0.216311896
-1.134782474 0.06651115 0.216311896
-1.135219069 -0.058588916 0.216311896
-1.121906211 -0.18297937 0.216311896
-1.095005141 -0.30515363 0.216311896
-1.054841677 -0.423631955 0.216311896
-1.001902268 -0.536979368 0.216311896
-0.936828101 -0.643823039 0.216311896
-0.860407335 -0.742868907 0.216311896
-0.773565559 -0.832917356 0.216311896
-0.677354575 -0.912877744 0.216311896
-0.572939662 -0.981781615 0.216311896
-0.461585466 -1.038794423 0.216311896
-0.344640677 -1.083225646 0.216311896
-0.223521697 -1.114537145 0.216311896
-0.099695486 -1.132349684 0.216311896
0.02533821 -1.136447522 0.216311896
0.150065016 -1.126781029 0.216311896
0.272974277 -1.103467281 0.216311896
0.39257735 -1.066788648 0.216311896
0.507425637 -1.017189372 0.216311896
0.616128128 -0.955270185 0.216311896
0.717368248 -0.881781034 0.216311896
0.809919807 -0.797612 0.216311896
0.892661845 -0.703782514 0.216311896
0.964592214 -0.601429013 0.216311896
1.024839714 -0.491791173 0.216311896
1.072674644 -0.376196896 0.216311896
1.107517641 -0.256046229 0.216311896
1.128946696 -0.132794402 0.216311896
1.136702267 -0.007934207 0.216311896
1.159725212 0 0.169345327
1.152977562 0.124921205 0.169345327
1.132813134 0.248388747 0.169345327
1.099466573 0.368965881 0.169345327
1.053325921 0.485249493 0.169345327
0.9949281 0.595886434 0.169345327
0.924952664 0.699589262 0.169345327
0.844213892 0.795151226 0.169345327
0.753651311 0.881460305 0.169345327
0.654318764 0.957512152 0.169345327
0.54737215 1.02242178 0.169345327
0.434055965 1.075433859 0.169345327
0.31568883 1.115931507 0.169345327
0.193648139 1.143443468 0.169345327
0.069354035 1.157649595 0.169345327
-0.055747116 1.158384576 0.169345327
-0.180199558 1.145639859 0.169345327
-0.302555084 1.119563749 0.169345327
-0.421389887 1.080459684 0.169345327
-0.535321129 1.028782705 0.169345327
-0.643023036 0.965134158 0.169345327
-0.743242317 0.890254696 0.169345327
-0.83481276 0.805015666 0.169345327
-0.916668791 0.710408962 0.169345327
-0.987857882 0.607535489 0.169345327
-1.047551632 0.497592347 0.169345327
-1.095055406 0.381858905 0.169345327
-1.129816421 0.26168191 0.169345327
-1.151430174 0.138459818 0.169345327
-1.159645154 0.01362652 0.169345327
-1.154365768 -0.111365345 0.169345327
-1.135653449 -0.235061292 0.169345327
-1.103725945 -0.356021917 0.169345327
-1.058954785 -0.472839644 0.169345327
-1.001860956 -0.58415511 0.169345327
-0.933108836 -0.688672975 0.169345327
-0.853498469 -0.785177005 0.169345327
-0.763956253 -0.872544217 0.169345327
-0.665524156 -0.94975795 0.169345327
-0.559347598 -1.015919697 0.169345327
-0.446662117 -1.070259557 0.169345327
-0.328778991 -1.112145198 0.169345327
-0.207069984 -1.141089211 0.169345327
-0.08295138 -1.156754786 0.169345327
0.0421325 -1.158959628 0.169345327
0.166726098 -1.14767808 0.169345327
0.289379567 -1.123041421 0.169345327
0.40866563 -1.085336339 0.169345327
0.523196202 -1.035001595 0.169345327
0.63163853 -0.972622915 0.169345327
0.732730711 -0.898926177 0.169345327
0.825296372 -0.814768964 0.169345327
0.908258361 -0.721130582 0.169345327
0.980651279 -0.619100666 0.169345327
1.041632716 -0.509866503 0.169345327
1.090493054 -0.394699209 0.169345327
1.126663722 -0.274938944 0.169345327
1.149723816 -0.151979315 0.169345327
1.159404994 -0.027251159 0.169345327
1.177070401 0 0.121553724
1.170421996 0.124928305 0.121553724
1.150551883 0.248445354 0.121553724
1.117684526 0.369155832 0.121553724
1.072191213 0.485696131 0.121553724
1.01458586 0.596749749 0.121553724
0.945519207 0.701062165 0.121553724
0.865771468 0.797455011 0.121553724
0.776243515 0.884839383 0.121553724
0.677946705 0.962228141 0.121553724
0.571991449 1.028747059 0.121553724
0.459574674 1.083644705 0.121553724
0.341966301 1.126300927 0.121553724
0.220494895 1.156233856 0.121553724
0.096532662 1.173105355 0.121553724
-0.028520055 1.176724834 0.121553724
-0.153250595 1.167051406 0.121553724
-0.276249935 1.144194347 0.121553724
-0.396128609 1.108411861 0.121553724
-0.511532404 1.060108168 0.121553724
-0.621157658 0.999828932 0.121553724
-0.723765986 0.928255097 0.121553724
-0.81819827 0.846195202 0.121553724
-0.903387753 0.754576237 0.121553724
-0.978372089 0.654433178 0.121553724
-1.042304215 0.546897296 0.121553724
-1.09446192 0.433183372 0.121553724
-1.134256004 0.314575979 0.121553724
-1.16123693 0.192414969 0.121553724
-1.175099909 0.068080338 0.121553724
-1.175688337 -0.057023365 0.121553724
-1.162995566 -0.181482902 0.121553724
-1.13716498 -0.303892312 0.121553724
-1.098488377 -0.422868793 0.121553724
-1.047402666 -0.537068324 0.121553724
-0.98448494 -0.645200847 0.121553724
-0.91044595 -0.746044839 0.121553724
-0.82612208 -0.838461113 0.121553724
-0.732465898 -0.921405686 0.121553724
-0.630535392 -0.993941572 0.121553724
-0.521482025 -1.055249367 0.121553724
-0.40653772 -1.104636506 0.121553724
-0.28700095 -1.141545086 0.121553724
-0.164222064 -1.165558168 0.121553724
-0.03958804 -1.176404487 0.121553724
0.085493192 -1.173961517 0.121553724
0.209608648 -1.158256856 0.121553724
0.331356254 -1.129467911 0.121553724
0.449360683 -1.087919899 0.121553724
0.562288896 -1.034082166 0.121553724
0.668865196 -0.968562894 0.121553724
0.76788564 -0.892102221 0.121553724
0.858231641 -0.80556389 0.121553724
0.938882602 -0.709925481 0.121553724
1.008927448 -0.606267378 0.121553724
1.067574915 -0.495760558 0.121553724
1.114162489 -0.379653363 0.121553724
1.148163894 -0.259257403 0.121553724
1.169195031 -0.135932734 0.121553724
1.177018321 -0.011072497 0.121553724
1.188681022 0 0.073169924
1.182097435 0.124932885 0.073169924
1.162419602 0.248481873 0.073169924
1.129865496 0.369278395 0.073169924
1.084795724 0.485984372 0.073169924
1.027709529 0.597307037 0.073169924
0.959239262 0.702013255 0.073169924
0.880143377 0.798943181 0.073169924
0.791298031 0.88702311 0.073169924
0.693687374 0.965277369 0.073169924
0.588392651 1.032839126 0.073169924
0.476580227 1.08895999 0.073169924
0.359488663 1.133018302 0.073169924
0.238414995 1.164526025 0.073169924
0.114700374 1.183134141 0.073169924
-0.010284798 1.188636528 0.073169924
-0.135156044 1.180972233 0.073169924
-0.258530149 1.160226156 0.073169924
-0.379040482 1.126628104 0.073169924
-0.495352134 1.080550246 0.073169924
-0.606176707 1.022502994 0.073169924
-0.710286582 0.953129343 0.073169924
-0.80652852 0.873197754 0.073169924
-0.893836438 0.783593641 0.073169924
-0.971243213 0.68530956 0.073169924
-1.037891401 0.579434216 0.073169924
-1.093042732 0.467140404 0.073169924
-1.136086287 0.349672018 0.073169924
-1.166545267 0.228330269 0.073169924
-1.184082274 0.104459276 0.073169924
-1.188503048 -0.020568826 0.073169924
-1.17975862 -0.145369084 0.073169924
-1.157945853 -0.26855907 0.073169924
-1.123306369 -0.388774193 0.073169924
-1.076223876 -0.504682813 0.073169924
-1.017219911 -0.615000996 0.073169924
-0.946948069 -0.718506734 0.073169924
-0.866186761 -0.81405348 0.073169924
-0.775830589 -0.900582849 0.073169924
-0.676880442 -0.977136346 0.073169924
-0.570432403 -1.042865977 0.073169924
-0.45766561 -1.097043646 0.073169924
-0.339829195 -1.139069221 0.073169924
-0.218228449 -1.168477178 0.073169924
-0.094210358 -1.184941762 0.073169924
0.030851314 -1.188280593 0.073169924
0.155571241 -1.178456686 0.073169924
0.278567886 -1.155578861 0.073169924
0.398478798 -1.11990054 0.073169924
0.513975709 -1.071816935 0.073169924
0.623779245 -1.011860675 0.073169924
0.726673097 -0.940695903 0.073169924
0.821517496 -0.859110921 0.073169924
0.90726184 -0.768009456 0.073169924
0.982956328 -0.668400651 0.073169924
1.04776248 -0.561387885 0.073169924
1.100962432 -0.448156553 0.073169924
1.14196688 -0.329960932 0.073169924
1.170321613 -0.208110292 0.073169924
1.185712542 -0.083954386 0.073169924
1.194500508 0 0.024429648
1.187948937 0.124935131 0.024429648
1.168366092 0.248499779 0.024429648
1.135966787 0.369338494 0.024429648
1.091106429 0.48612573 0.024429648
1.034277116 0.597580381 0.024429648
0.966102241 0.70247984 0.024429648
0.887329651 0.799673405 0.024429648
0.798823447 0.888094907 0.024429648
0.701554504 0.966774401 0.024429648
0.596589818 1.034848807 0.024429648
0.485080806 1.091571379 0.024429648
0.368250671 1.136319897 0.024429648
0.24738099 1.168603487 0.024429648
0.123797649 1.188068014 0.024429648
-0.001143698 1.194499961 0.024429648
-0.126072499 1.187828771 0.024429648
-0.24961834 1.168127625 0.024429648
-0.370425979 1.135612636 0.024429648
-0.487170208 1.090640478 0.024429648
-0.598570396 1.033704477 0.024429648
-0.703404531 0.965429195 0.024429648
-0.80052263 0.886563581 0.024429648
-0.88885935 0.797972757 0.024429648
-0.967445675 0.700628525 0.024429648
-1.035419549 0.595598708 0.024429648
-1.092035329 0.484035437 0.024429648
-1.136671965 0.36716251 0.024429648
-1.168839811 0.246261974 0.024429648
-1.188186002 0.122660053 0.024429648
-1.194498318 -0.002287395 0.024429648
-1.187707516 -0.127209751 0.024429648
-1.167888088 -0.250736673 0.024429648
-1.135257444 -0.371513124 0.024429648
-1.090173527 -0.488214241 0.024429648
-1.03313089 -0.599559863 0.024429648
-0.964755263 -0.704328578 0.024429648
-0.885796698 -0.801371121 0.024429648
-0.797121335 -0.889622977 0.024429648
-0.699701904 -0.968116062 0.024429648
-0.594607052 -1.035989343 0.024429648
-0.482989624 -1.092498278 0.024429648
-0.366074013 -1.137022991 0.024429648
-0.245142732 -1.169075064 0.024429648
-0.121522344 -1.188302901 0.024429648
0.00343109 -1.194495581 0.024429648
0.128346887 -1.187585172 0.024429648
0.251854776 -1.16764748 0.024429648
0.372599928 -1.134901211 0.024429648
0.489257825 -1.089705577 0.024429648
0.600548779 -1.032556356 0.024429648
0.70525198 -0.964080448 0.024429648
0.802218877 -0.885029004 0.024429648
0.890385789 -0.796269183 0.024429648
0.968785562 -0.698774641 0.024429648
1.036558186 -0.593614851 0.024429648
1.092960225 -0.481943368 0.024429648
1.137372974 -0.36498518 0.024429648
1.169309245 -0.244023266 0.024429648
1.18841871 -0.120384524 0.024429648
1.194500508 0 -0.024429648
1.187948937 0.124935131 -0.024429648
1.168366092 0.248499779 -0.024429648
1.135966787 0.369338494 -0.024429648
1.091106429 0.48612573 -0.024429648
1.034277116 0.597580381 -0.024429648
0.966102241 0.70247984 -0.024429648
0.887329651 0.799673405 -0.024429648
0.798823447 0.888094907 -0.024429648
0.701554504 0.966774401 -0.024429648
0.596589818 1.034848807 -0.024429648
0.485080806 1.091571379 -0.024429648
0.368250671 1.136319897 -0.024429648
0.24738099 1.168603487 -0.024429648
0.123797649 1.188068014 -0.024429648
-0.001143698 1.194499961 -0.024429648
-0.126072499 1.187828771 -0.024429648
-0.24961834 1.168127625 -0.024429648
-0.370425979 1.135612636 -0.024429648
-0.487170208 1.090640478 -0.024429648
-0.598570396 1.033704477 -0.024429648
-0.703404531 0.965429195 -0.024429648
-0.80052263 0.886563581 -0.024429648
-0.88885935 0.797972757 -0.024429648
-0.967445675 0.700628525 -0.024429648
-1.035419549 0.595598708 -0.024429648
-1.092035329 0.484035437 -0.024429648
-1.136671965 0.36716251 -0.024429648
-1.168839811 0.246261974 -0.024429648
-1.188186002 0.122660053 -0.024429648
-1.194498318 -0.002287395 -0.024429648
-1.187707516 -0.127209751 -0.024429648
-1.167888088 -0.250736673 -0.024429648
-1.135257444 -0.371513124 -0.024429648
-1.090173527 -0.488214241 -0.024429648
-1.03313089 -0.599559863 -0.024429648
-0.964755263 -0.704328578 -0.024429648
-0.885796698 -0.801371121 -0.024429648
-0.797121335 -0.889622977 -0.024429648
-0.699701904 -0.968116062 -0.024429648
-0.594607052 -1.035989343 -0.024429648
-0.482989624 -1.092498278 -0.024429648
-0.366074013 -1.137022991 -0.024429648
-0.245142732 -1.169075064 -0.024429648
-0.121522344 -1.188302901 -0.024429648
0.00343109 -1.194495581 -0.024429648
0.128346887 -1.187585172 -0.024429648
0.251854776 -1.16764748 -0.024429648
0.372599928 -1.134901211 -0.024429648
0.489257825 -1.089705577 -0.024429648
0.600548779 -1.032556356 -0.024429648
0.70525198 -0.964080448 -0.024429648
0.802218877 -0.885029004 -0.024429648
0.890385789 -0.796269183 -0.024429648
0.968785562 -0.698774641 -0.024429648
1.036558186 -0.593614851 -0.024429648
1.092960225 -0.481943368 -0.024429648
1.137372974 -0.36498518 -0.024429648
1.169309245 -0.244023266 -0.024429648
1.18841871 -0.120384524 -0.024429648
1.188681022 0 -0.073169924
1.182097435 0.124932885 -0.073169924
1.162419602 0.248481873 -0.073169924
1.129865496 0.369278395 -0.073169924
1.084795724 0.485984372 -0.073169924
1.027709529 0.597307037 -0.073169924
0.959239262 0.702013255 -0.073169924
0.880143377 0.798943181 -0.073169924
0.791298031 0.88702311 -0.073169924
0.693687374 0.965277369 -0.073169924
0.588392651 1.032839126 -0.073169924
0.476580227 1.08895999 -0.073169924
0.359488663 1.133018302 -0.073169924
0.238414995 1.164526025 -0.073169924
0.114700374 1.183134141 -0.073169924
-0.010284798 1.188636528 -0.073169924
-0.135156044 1.180972233 -0.073169924
-0.258530149 1.160226156 -0.073169924
-0.379040482 1.126628104 -0.073169924
-0.495352134 1.080550246 -0.073169924
-0.606176707 1.022502994 -0.073169924
-0.710286582 0.953129343 -0.073169924
-0.80652852 0.873197754 -0.073169924
-0.893836438 0.783593641 -0.073169924
-0.971243213 0.68530956 -0.073169924
-1.037891401 0.579434216 -0.073169924
-1.093042732 0.467140404 -0.073169924
-1.136086287 0.349672018 -0.073169924
-1.166545267 0.228330269 -0.073169924
-1.184082274 0.104459276 -0.073169924
-1.188503048 -0.020568826 -0.073169924
-1.17975862 -0.145369084 -0.073169924
-1.157945853 -0.26855907 -0.073169924
-1.123306369 -0.388774193 -0.073169924
-1.076223876 -0.504682813 -0.073169924
-1.017219911 -0.615000996 -0.073169924
-0.946948069 -0.718506734 -0.073169924
-0.866186761 -0.81405348 -0.073169924
-0.775830589 -0.900582849 -0.073169924
-0.676880442 -0.977136346 -0.073169924
-0.570432403 -1.042865977 -0.073169924
-0.45766561 -1.097043646 -0.073169924
-0.339829195 -1.139069221 -0.073169924
-0.218228449 -1.168477178 -0.073169924
-0.094210358 -1.184941762 -0.073169924
0.030851314 -1.188280593 -0.073169924
0.155571241 -1.178456686 -0.073169924
0.278567886 -1.155578861 -0.073169924
0.398478798 -1.11990054 -0.073169924
0.513975709 -1.071816935 -0.073169924
0.623779245 -1.011860675 -0.073169924
0.726673097 -0.940695903 -0.073169924
0.821517496 -0.859110921 -0.073169924
0.90726184 -0.768009456 -0.073169924
0.982956328 -0.668400651 -0.073169924
1.04776248 -0.561387885 -0.073169924
1.100962432 -0.448156553 -0.073169924
1.14196688 -0.329960932 -0.073169924
1.170321613 -0.208110292 -0.073169924
1.185712542 -0.083954386 -0.073169924
1.177070401 0 -0.121553724
1.170421996 0.124928305 -0.121553724
1.150551883 0.248445354 -0.121553724
1.117684526 0.369155832 -0.121553724
1.072191213 0.485696131 -0.121553724
1.01458586 0.596749749 -0.121553724
0.945519207 0.701062165 -0.121553724
0.865771468 0.797455011 -0.121553724
0.776243515 0.884839383 -0.121553724
0.677946705 0.962228141 -0.121553724
0.571991449 1.028747059 -0.121553724
0.459574674 1.083644705 -0.121553724
0.341966301 1.126300927 -0.121553724
0.220494895 1.156233856 -0.121553724
0.096532662 1.173105355 -0.121553724
-0.028520055 1.176724834 -0.121553724
-0.153250595 1.167051406 -0.121553724
-0.276249935 1.144194347 -0.121553724
-0.396128609 1.108411861 -0.121553724
-0.511532404 1.060108168 -0.121553724
-0.621157658 0.999828932 -0.121553724
-0.723765986 0.928255097 -0.121553724
-0.81819827 0.846195202 -0.121553724
-0.903387753 0.754576237 -0.121553724
-0.978372089 0.654433178 -0.121553724
-1.042304215 0.546897296 -0.121553724
-1.09446192 0.433183372 -0.121553724
-1.134256004 0.314575979 -0.121553724
-1.16123693 0.192414969 -0.121553724
-1.175099909 0.068080338 -0.121553724
-1.175688337 -0.057023365 -0.121553724
-1.162995566 -0.181482902 -0.121553724
-1.13716498 -0.303892312 -0.121553724
-1.098488377 -0.422868793 -0.121553724
-1.047402666 -0.537068324 -0.121553724
-0.98448494 -0.645200847 -0.121553724
-0.91044595 -0.746044839 -0.121553724
-0.82612208 -0.838461113 -0.121553724
-0.732465898 -0.921405686 -0.121553724
-0.630535392 -0.993941572 -0.121553724
-0.521482025 -1.055249367 -0.121553724
-0.40653772 -1.104636506 -0.121553724
-0.28700095 -1.141545086 -0.121553724
-0.164222064 -1.165558168 -0.121553724
-0.03958804 -1.176404487 -0.121553724
0.085493192 -1.173961517 -0.121553724
0.209608648 -1.158256856 -0.121553724
0.331356254 -1.129467911 -0.121553724
0.449360683 -1.087919899 -0.121553724
0.562288896 -1.034082166 -0.121553724
0.668865196 -0.968562894 -0.121553724
0.76788564 -0.892102221 -0.121553724
0.858231641 -0.80556389 -0.121553724
0.938882602 -0.709925481 -0.121553724
1.008927448 -0.606267378 -0.121553724
1.067574915 -0.495760558 -0.121553724
1.114162489 -0.379653363 -0.121553724
1.148163894 -0.259257403 -0.121553724
1.169195031 -0.135932734 -0.121553724
1.177018321 -0.011072497 -0.121553724
1.159725212 0 -0.169345327
1.152977562 0.124921205 -0.169345327
1.132813134 0.248388747 -0.169345327
1.099466573 0.368965881 -0.169345327
1.053325921 0.485249493 -0.169345327
0.9949281 0.595886434 -0.169345327
0.924952664 0.699589262 -0.169345327
0.844213892 0.795151226 -0.169345327
0.753651311 0.881460305 -0.169345327
0.654318764 0.957512152 -0.169345327
0.54737215 1.02242178 -0.169345327
0.434055965 1.075433859 -0.169345327
0.31568883 1.115931507 -0.169345327
0.193648139 1.143443468 -0.169345327
0.069354035 1.157649595 -0.169345327
-0.055747116 1.158384576 -0.169345327
-0.180199558 1.145639859 -0.169345327
-0.302555084 1.119563749 -0.169345327
-0.421389887 1.080459684 -0.169345327
-0.535321129 1.028782705 -0.169345327
-0.643023036 0.965134158 -0.169345327
-0.743242317 0.890254696 -0.169345327
-0.83481276 0.805015666 -0.169345327
-0.916668791 0.710408962 -0.169345327
-0.987857882 0.607535489 -0.169345327
-1.047551632 0.497592347 -0.169345327
-1.095055406 0.381858905 -0.169345327
-1.129816421 0.26168191 -0.169345327
-1.151430174 0.138459818 -0.169345327
-1.159645154 0.01362652 -0.169345327
-1.154365768 -0.111365345 -0.169345327
-1.135653449 -0.235061292 -0.169345327
-1.103725945 -0.356021917 -0.169345327
-1.058954785 -0.472839644 -0.169345327
-1.001860956 -0.58415511 -0.169345327
-0.933108836 -0.688672975 -0.169345327
-0.853498469 -0.785177005 -0.169345327
-0.763956253 -0.872544217 -0.169345327
-0.665524156 -0.94975795 -0.169345327
-0.559347598 -1.015919697 -0.169345327
-0.446662117 -1.070259557 -0.169345327
-0.328778991 -1.112145198 -0.169345327
-0.207069984 -1.141089211 -0.169345327
-0.08295138 -1.156754786 -0.169345327
0.0421325 -1.158959628 -0.169345327
0.166726098 -1.14767808 -0.169345327
0.289379567 -1.123041421 -0.169345327
0.40866563 -1.085336339 -0.169345327
0.523196202 -1.035001595 -0.169345327
0.63163853 -0.972622915 -0.169345327
0.732730711 -0.898926177 -0.169345327
0.825296372 -0.814768964 -0.169345327
0.908258361 -0.721130582 -0.169345327
0.980651279 -0.619100666 -0.169345327
1.041632716 -0.509866503 -0.169345327
1.090493054 -0.394699209 -0.169345327
1.126663722 -0.274938944 -0.169345327
1.149723816 -0.151979315 -0.169345327
1.159404994 -0.027251159 -0.169345327
1.136729957 0 -0.216311896
1.129846081 0.124911287 -0.216311896
1.109277827 0.248309683 -0.216311896
1.075274313 0.368700622 -0.216311896
1.028247379 0.484625963 -0.216311896
0.968766602 0.594681651 -0.216311896
0.897552398 0.697534723 -0.216311896
0.815467291 0.79193945 -0.216311896
0.723505475 0.87675243 -0.216311896
0.622780764 0.950946432 -0.216311896
0.514513108 1.013622838 -0.216311896
0.400013814 1.06402253 -0.216311896
0.280669665 1.101535081 -0.216311896
0.157926125 1.125706149 -0.216311896
0.033269828 1.136242982 -0.216311896
-0.091789424 1.13301796 -0.216311896
-0.215736948 1.116070143 -0.216311896
-0.337071527 1.0856048 -0.216311896
-0.454323591 1.041990917 -0.216311896
-0.566073016 0.985756733 -0.216311896
-0.670966323 0.917583342 -0.216311896
-0.767733076 0.83829644 -0.216311896
-0.855201261 0.748856327 -0.216311896
-0.93231149 0.650346278 -0.216311896
-0.998129825 0.543959417 -0.216311896
-1.051859093 0.430984274 -0.216311896
-1.09284854 0.31278917 -0.216311896
-1.120601713 0.190805652 -0.216311896
-1.134782474 0.06651115 -0.216311896
-1.135219069 -0.058588916 -0.216311896
-1.121906211 -0.18297937 -0.216311896
-1.095005141 -0.30515363 -0.216311896
-1.054841677 -0.423631955 -0.216311896
-1.001902268 -0.536979368 -0.216311896
-0.936828101 -0.643823039 -0.216311896
-0.860407335 -0.742868907 -0.216311896
-0.773565559 -0.832917356 -0.216311896
-0.677354575 -0.912877744 -0.216311896
-0.572939662 -0.981781615 -0.216311896
-0.461585466 -1.038794423 -0.216311896
-0.344640677 -1.083225646 -0.216311896
-0.223521697 -1.114537145 -0.216311896
-0.099695486 -1.132349684 -0.216311896
0.02533821 -1.136447522 -0.216311896
0.150065016 -1.126781029 -0.216311896
0.272974277 -1.103467281 -0.216311896
0.39257735 -1.066788648 -0.216311896
0.507425637 -1.017189372 -0.216311896
0.616128128 -0.955270185 -0.216311896
0.717368248 -0.881781034 -0.216311896
0.809919807 -0.797612 -0.216311896
0.892661845 -0.703782514 -0.216311896
0.964592214 -0.601429013 -0.216311896
1.024839714 -0.491791173 -0.216311896
1.072674644 -0.376196896 -0.216311896
1.107517641 -0.256046229 -0.216311896
1.128946696 -0.132794402 -0.216311896
1.136702267 -0.007934207 -0.216311896
1.108196669 0 -0.262224615
1.101135922 0.124898111 -0.262224615
1.080043655 0.248204675 -0.262224615
1.045188641 0.368348424 -0.262224615
0.997015031 0.483798394 -0.262224615
0.936136688 0.593083433 -0.262224615
0.863329372 0.694810948 -0.262224615
0.77952085 0.787684647 -0.262224615
0.685779073 0.870521062 -0.262224615
0.583298573 0.94226463 -0.262224615
0.473385234 1.002001137 -0.262224615
0.357439656 1.048969375 -0.262224615
0.236939308 1.082570839 -0.262224615
0.113419696 1.102377354 -0.262224615
-0.011545196 1.108136529 -0.262224615
-0.13636297 1.099774976 -0.262224615
-0.259443103 1.077399245 -0.262224615
-0.379217212 1.041294465 -0.262224615
-0.494159044 0.991920711 -0.262224615
-0.602803922 0.92990714 -0.262224615
-0.703767409 0.856043978 -0.262224615
-0.79576295 0.771272445 -0.262224615
-0.877618268 0.676672766 -0.262224615
-0.9482903 0.573450403 -0.262224615
-1.006878488 0.462920693 -0.262224615
-1.052636256 0.346492093 -0.262224615
-1.084980524 0.225648223 -0.262224615
-1.103499136 0.101928971 -0.262224615
-1.107956113 -0.023089139 -0.262224615
-1.098294663 -0.147813029 -0.262224615
-1.074637897 -0.270653372 -0.262224615
-1.037287269 -0.390044841 -0.262224615
-0.98671873 -0.50446606 -0.262224615
-0.923576662 -0.612458984 -0.262224615
-0.84866567 -0.712647485 -0.262224615
-0.762940328 -0.803754883 -0.262224615
-0.667493014 -0.88462022 -0.262224615
-0.563539991 -0.954213045 -0.262224615
-0.452405908 -1.011646555 -0.262224615
-0.335506921 -1.056188886 -0.262224615
-0.214332648 -1.087272447 -0.262224615
-0.090427182 -1.104501146 -0.262224615
0.034630576 -1.107655443 -0.262224615
0.159247044 -1.096695143 -0.262224615
0.281834264 -1.07175991 -0.262224615
0.400830136 -1.033167489 -0.262224615
0.514718321 -0.981409653 -0.262224615
0.62204757 -0.917145941 -0.262224615
0.721450211 -0.841195251 -0.262224615
0.811659579 -0.754525404 -0.262224615
0.891526157 -0.658240814 -0.262224615
0.960032222 -0.553568414 -0.262224615
1.01630482 -0.44184202 -0.262224615
1.05962688 -0.324485335 -0.262224615
1.08944636 -0.202993809 -0.262224615
1.105383277 -0.078915579 -0.262224615
1.074264358 0 -0.306859803
1.066981083 0.124881058 -0.306859803
1.045230018 0.248068784 -0.306859803
1.009306095 0.367892806 -0.306859803
0.959696429 0.482728366 -0.306859803
0.897073704 0.591018342 -0.306859803
0.822287056 0.691294371 -0.306859803
0.73635056 0.782196755 -0.306859803
0.640429477 0.862492896 -0.306859803
0.535824453 0.931094016 -0.306859803
0.423953886 0.987069913 -0.306859803
0.306334693 1.029661579 -0.306859803
0.184561737 1.058291489 -0.306859803
0.060286205 1.072571436 -0.306859803
-0.064806781 1.072307788 -0.306859803
-0.189021016 1.057504121 -0.306859803
-0.310672209 1.028361167 -0.306859803
-0.428110825 0.98527409 -0.306859803
-0.539744448 0.928827133 -0.306859803
-0.644059374 0.85978569 -0.306859803
-0.739641141 0.779085935 -0.306859803
-0.825193701 0.687822119 -0.306859803
-0.899557 0.587231739 -0.306859803
-0.961722704 0.478678757 -0.306859803
-1.010847873 0.363635103 -0.306859803
-1.046266393 0.243660718 -0.306859803
-1.067498004 0.120382401 -0.306859803
-1.074254814 -0.004528248 -0.306859803
-1.066445205 -0.129377496 -0.306859803
-1.04417507 -0.252472442 -0.306859803
-1.007746384 -0.372143973 -0.306859803
-0.957653102 -0.486769397 -0.306859803
-0.894574469 -0.594794444 -0.306859803
-0.819365802 -0.694754341 -0.306859803
-0.733046896 -0.785293677 -0.306859803
-0.6367882 -0.865184778 -0.306859803
-0.531894937 -0.933344356 -0.306859803
-0.419789415 -0.988848198 -0.306859803
-0.301991733 -1.030943696 -0.306859803
-0.180099178 -1.059060054 -0.306859803
-0.055764557 -1.072816026 -0.306859803
0.069326206 -1.072025087 -0.306859803
0.193476937 -1.056697963 -0.306859803
0.315004206 -1.027042483 -0.306859803
0.432260157 -0.98346076 -0.306859803
0.543654852 -0.926543746 -0.306859803
0.647677828 -0.857063208 -0.306859803
0.742918579 -0.775961272 -0.306859803
0.828085683 -0.684337645 -0.306859803
0.902024312 -0.583434702 -0.306859803
0.96373189 -0.474620643 -0.306859803
1.012371691 -0.359370938 -0.306859803
1.047284179 -0.239248322 -0.306859803
1.067995957 -0.115881605 -0.306859803
1.035098339 0 -0.35
1.02754014 0.124859253 -0.35
1.00497592 0.247895083 -0.35
0.967735204 0.367310695 -0.35
0.916361848 0.481362165 -0.35
0.851606102 0.588383905 -0.35
0.774413645 0.686812986 -0.35
0.685911784 0.775211968 -0.35
0.587392985 0.852289888 -0.35
0.480295999 0.916921111 -0.35
0.366184853 0.968161776 -0.35
0.246726006 1.005263572 -0.35
0.123664014 1.027684671 -0.35
-0.001203946 1.035097639 -0.35
-0.126054323 1.027394218 -0.35
-0.249063825 1.004686908 -0.35
-0.368436041 0.967307322 -0.35
-0.48242768 0.915801346 -0.35
-0.589374028 0.850921163 -0.35
-0.687713259 0.773614274 -0.35
-0.776009243 0.685009654 -0.35
-0.852972521 0.58640127 -0.35
-0.917479134 0.479229183 -0.35
-0.968587039 0.365058515 -0.35
-1.005549865 0.245556595 -0.35
-1.027827812 0.122468608 -0.35
-1.035095538 -0.00240789 -0.35
-1.027246906 -0.127249223 -0.35
-1.004396537 -0.25023223 -0.35
-0.966878132 -0.369560888 -0.35
-0.915239604 -0.483492543 -0.35
-0.850235074 -0.590363355 -0.35
-0.772813856 -0.688612602 -0.35
-0.684106597 -0.776805468 -0.35
-0.585408763 -0.853654 -0.35
-0.478161719 -0.918035915 -0.35
-0.363931683 -0.969010991 -0.35
-0.244386851 -1.005834797 -0.35
-0.121273036 -1.027969563 -0.35
0.00361183 -1.035092038 -0.35
0.12844395 -1.027098205 -0.35
0.251400296 -1.004104807 -0.35
0.370685235 -0.966447633 -0.35
0.484556751 -0.914676624 -0.35
0.591351883 -0.849547834 -0.35
0.689511013 -0.772012393 -0.35
0.777600642 -0.683202615 -0.35
0.854334324 -0.584415463 -0.35
0.918591455 -0.477093608 -0.35
0.969433633 -0.362804359 -0.35
1.006118368 -0.243216778 -0.35
1.028109923 -0.1200773 -0.35
0.990889425 0 -0.391435032
0.982994891 0.124831471 -0.391435032
0.959437083 0.247673849 -0.391435032
0.920591377 0.366569732 -0.391435032
0.86707675 0.479624606 -0.391435032
0.799745915 0.585037028 -0.391435032
0.719671739 0.68112733 -0.391435032
0.628130143 0.766364388 -0.391435032
0.526579772 0.839390014 -0.391435032
0.416638754 0.899040601 -0.391435032
0.300058914 0.94436566 -0.391435032
0.178697865 0.974642973 -0.391435032
0.054489402 0.989390094 -0.391435032
-0.070587308 0.988372037 -0.391435032
-0.194539264 0.971605026 -0.391435032
-0.315391385 0.93935623 -0.391435032
-0.431217984 0.892139509 -0.391435032
-0.540173454 0.830707224 -0.391435032
-0.640521671 0.756038254 -0.391435032
-0.730663664 0.66932239 -0.391435032
-0.809163089 0.571941385 -0.391435032
-0.874769117 0.465446929 -0.391435032
-0.926436366 0.351535932 -0.391435032
-0.963341558 0.232023478 -0.391435032
-0.984896637 0.108813906 -0.391435032
-0.990758139 -0.016129532 -0.391435032
-0.980832666 -0.140815958 -0.391435032
-0.955278372 -0.263258589 -0.391435032
-0.914502445 -0.381506396 -0.391435032
-0.85915462 -0.493675189 -0.391435032
-0.79011682 -0.597977644 -0.391435032
-0.708489112 -0.692751782 -0.391435032
-0.615572169 -0.776487448 -0.391435032
-0.512846554 -0.847850379 -0.391435032
-0.40194912 -0.90570346 -0.391435032
-0.284646933 -0.949124847 -0.391435032
-0.162809114 -0.977422654 -0.391435032
-0.038377057 -0.990145976 -0.391435032
0.08666651 -0.987092077 -0.391435032
0.210329112 -0.968309618 -0.391435032
0.330640281 -0.934097884 -0.391435032
0.445682948 -0.885002013 -0.391435032
0.553623997 -0.821804309 -0.391435032
0.652743471 -0.74551178 -0.391435032
0.741461974 -0.657340089 -0.391435032
0.818365847 -0.558694186 -0.391435032
0.882229684 -0.451145916 -0.391435032
0.932035863 -0.33640898 -0.391435032
0.966990762 -0.216311624 -0.391435032
0.9865374 -0.092767507 -0.391435032
0.941852997 0 -0.430963033
0.933548624 0.124795971 -0.430963033
0.908781946 0.247391275 -0.430963033
0.867989701 0.365624053 -0.430963033
0.811891223 0.477409373 -0.430963033
0.741475761 0.580776001 -0.430963033
0.657985029 0.673901157 -0.430963033
0.562891313 0.755142661 -0.430963033
0.457871504 0.823067891 -0.430963033
0.344777537 0.876479046 -0.430963033
0.225603722 0.914434267 -0.430963033
0.102451584 0.936264248 -0.430963033
-0.022507196 0.941584035 -0.430963033
-0.147069082 0.930299819 -0.430963033
-0.269037535 0.902610588 -0.430963033
-0.386261749 0.859004616 -0.430963033
-0.496674577 0.800250856 -0.430963033
-0.598328988 0.727385379 -0.430963033
-0.689432396 0.641693104 -0.430963033
-0.768378272 0.544685137 -0.430963033
-0.833774477 0.438072129 -0.430963033
-0.884467804 0.323734106 -0.430963033
-0.919564323 0.203687318 -0.430963033
-0.938445138 0.080048684 -0.430963033
-0.940777301 -0.045001538 -0.430963033
-0.926519687 -0.169258198 -0.430963033
-0.895923717 -0.290530138 -0.430963033
-0.849528924 -0.406678837 -0.430963033
-0.788153438 -0.515656113 -0.430963033
-0.712879562 -0.615540249 -0.430963033
-0.625034685 -0.704569876 -0.430963033
-0.526167873 -0.781175036 -0.430963033
-0.418022556 -0.844004864 -0.430963033
-0.30250578 -0.891951412 -0.430963033
-0.181654581 -0.924169184 -0.430963033
-0.057600065 -0.940090049 -0.430963033
0.067470178 -0.939433256 -0.430963033
0.191350644 -0.922210388 -0.430963033
0.31185681 -0.888725154 -0.430963033
0.426863656 -0.839568036 -0.430963033
0.53434314 -0.775605878 -0.430963033
0.632399953 -0.697966595 -0.430963033
0.719304952 -0.608019287 -0.430963033
0.793525644 -0.507350097 -0.430963033
0.853753212 -0.397734235 -0.430963033
0.898925595 -0.281104682 -0.430963033
0.92824622 -0.159518095 -0.430963033
0.941198043 -0.035118549 -0.430963033
0.888227956 0 -0.468391424
0.879423835 0.124750231 -0.468391424
0.853186006 0.247027412 -0.468391424
0.810034606 0.364407519 -0.468391424
0.75082507 0.474563606 -0.468391424
0.676731169 0.575311939 -0.468391424
0.589221741 0.664655281 -0.468391424
0.490031574 0.740822488 -0.468391424
0.381127015 0.802303621 -0.468391424
0.26466699 0.847879878 -0.468391424
0.142960203 0.876647753 -0.468391424
0.018419371 0.888036953 -0.468391424
-0.106486607 0.881821697 -0.468391424
-0.229281593 0.858125197 -0.468391424
-0.347531298 0.817417212 -0.468391424
-0.458891538 0.760504739 -0.468391424
-0.561154707 0.688516011 -0.468391424
-0.652293538 0.602878132 -0.468391424
-0.730501294 0.505288791 -0.468391424
-0.794227583 0.397682598 -0.468391424
-0.842209095 0.28219274 -0.468391424
-0.873494644 0.16110869 -0.468391424
-0.887464024 0.036830819 -0.468391424
-0.883840306 -0.088177186 -0.468391424
-0.862695327 -0.211437165 -0.468391424
-0.824448266 -0.330505612 -0.468391424
-0.769857332 -0.443022112 -0.468391424
-0.700004736 -0.546756135 -0.468391424
-0.616275239 -0.639651258 -0.468391424
-0.520328693 -0.719865927 -0.468391424
-0.414067145 -0.785809965 -0.468391424
-0.299597125 -0.836176097 -0.468391424
-0.179187888 -0.869965863 -0.468391424
-0.055226428 -0.886509416 -0.468391424
0.069829841 -0.885478795 -0.468391424
0.193501803 -0.866894431 -0.468391424
0.313337783 -0.831124742 -0.468391424
0.42696215 -0.778878825 -0.468391424
0.532122415 -0.711192405 -0.468391424
0.626733879 -0.629407299 -0.468391424
0.708920962 -0.535144814 -0.468391424
0.777054388 -0.430273612 -0.468391424
0.829783477 -0.31687266 -0.468391424
0.866062929 -0.197190021 -0.468391424
0.885173539 -0.073598285 -0.468391424
0.830275558 0 -0.50353786
0.820859171 0.124690515 -0.50353786
0.792823596 0.24655273 -0.50353786
0.746804752 0.362822498 -0.50353786
0.683846465 0.470862523 -0.50353786
0.605376789 0.56822218 -0.50353786
0.513175618 0.652693104 -0.50353786
0.40933431 0.722359277 -0.50353786
0.296208252 0.775640493 -0.50353786
0.176363433 0.811328196 -0.50353786
0.052518239 0.828612899 -0.50353786
-0.072518202 0.827102541 -0.50353786
-0.195909745 0.806831379 -0.50353786
-0.314857554 0.768259216 -0.50353786
-0.426663587 0.712260968 -0.50353786
-0.528791798 0.640106817 -0.50353786
-0.618925657 0.553433405 -0.50353786
-0.695020698 0.454206707 -0.50353786
-0.75535089 0.344677437 -0.50353786
-0.79854779 0.227330001 -0.50353786
-0.823631582 0.104826139 -0.50353786
-0.830033301 -0.020055448 -0.50353786
-0.817607741 -0.144482127 -0.50353786
-0.786636743 -0.265631581 -0.50353786
-0.737822811 -0.380755831 -0.50353786
-0.672273168 -0.487243564 -0.50353786
-0.591474649 -0.582679365 -0.50353786
-0.49725997 -0.664898507 -0.50353786
-0.391766163 -0.732036048 -0.50353786
-0.277386096 -0.782569138 -0.50353786
-0.156714202 -0.815351557 -0.50353786
-0.032487629 -0.829639715 -0.50353786
0.092475847 -0.82510952 -0.50353786
0.215341733 -0.801863729 -0.50353786
0.333323118 -0.760429616 -0.50353786
0.443743881 -0.701747013 -0.50353786
0.544099397 -0.627146991 -0.50353786
0.632113346 -0.53832167 -0.50353786
0.705789346 -0.437285835 -0.50353786
0.763456237 -0.326331238 -0.50353786
0.803805986 -0.207974613 -0.50353786
0.825923357 -0.084900591 -0.50353786
0.768278141 0 -0.53623111
0.75810512 0.124611112 -0.53623111
0.727855465 0.245922191 -0.53623111
0.678330267 0.360720599 -0.53623111
0.610841085 0.465966169 -0.53623111
0.527175211 0.558871719 -0.53623111
0.42954834 0.636976864 -0.53623111
0.32054589 0.698213172 -0.53623111
0.203054535 0.740958945 -0.53623111
0.080185757 0.764082159 -0.53623111
-0.044806552 0.766970452 -0.53623111
-0.168612265 0.749547334 -0.53623111
-0.287952678 0.712274215 -0.53623111
-0.399667341 0.656138185 -0.53623111
-0.500797752 0.582625877 -0.53623111
-0.588665712 0.493684091 -0.53623111
-0.660944242 0.391668241 -0.53623111
-0.715719216 0.279279977 -0.53623111
-0.751540047 0.159495639 -0.53623111
-0.767458106 0.035487433 -0.53623111
-0.763051838 -0.089460574 -0.53623111
-0.738437934 -0.212039427 -0.53623111
-0.694268236 -0.329002915 -0.53623111
-0.631712474 -0.437253532 -0.53623111
-0.552427291 -0.533924517 -0.53623111
-0.458512368 -0.616455765 -0.53623111
-0.352454822 -0.68266163 -0.53623111
-0.237063337 -0.730788804 -0.53623111
-0.115393787 -0.759562753 -0.53623111
0.009331697 -0.768221466 -0.53623111
0.133810053 -0.756535638 -0.53623111
0.254744763 -0.72481474 -0.53623111
0.368933157 -0.673898826 -0.53623111
0.473351223 -0.605136283 -0.53623111
0.565233693 -0.520348128 -0.53623111
0.642147276 -0.421779774 -0.53623111
0.702055096 -0.312041574 -0.53623111
0.743370636 -0.194039685 -0.53623111
0.76499975 -0.07089911 -0.53623111
0.70253775 0 -0.566311896
0.691417604 0.12450296 -0.566311896
0.658409197 0.24506452 -0.566311896
0.60455748 0.357868053 -0.566311896
0.531567239 0.45934253 -0.566311896
0.441749134 0.546275565 -0.566311896
0.337946541 0.615915112 -0.566311896
0.223445549 0.666056586 -0.566311896
0.101870924 0.695112656 -0.566311896
-0.022928636 0.70216349 -0.566311896
-0.147002344 0.686985881 -0.566311896
-0.266422386 0.650060306 -0.566311896
-0.377408275 0.592555722 -0.566311896
-0.47644652 0.516292556 -0.566311896
-0.560401861 0.423685076 -0.566311896
-0.626616517 0.317664965 -0.566311896
-0.672994326 0.201588509 -0.566311896
-0.698067101 0.079130351 -0.566311896
-0.701041112 -0.045832844 -0.566311896
-0.68182221 -0.169345104 -0.566311896
-0.641018809 -0.287496393 -0.566311896
-0.579922627 -0.396546387 -0.566311896
-0.500467789 -0.493042881 -0.566311896
-0.405169603 -0.573931078 -0.566311896
-0.297044932 -0.636650295 -0.566311896
-0.179516686 -0.679215024 -0.566311896
-0.056305467 -0.700277791 -0.566311896
0.068688218 -0.699171809 -0.566311896
0.191507436 -0.675932091 -0.566311896
0.308264087 -0.631294339 -0.566311896
0.415261999 -0.566671653 -0.566311896
0.509113929 -0.484109798 -0.566311896
0.586848801 -0.386222442 -0.566311896
0.646005754 -0.276108413 -0.566311896
0.684712053 -0.157253598 -0.566311896
0.70174237 -0.033420594 -0.566311896
0.633374665 0 -0.593633667
0.621047741 0.124350996 -0.593633667
0.584546788 0.24386168 -0.593633667
0.525292592 0.353880148 -0.593633667
0.445591597 0.450123977 -0.593633667
0.348546133 0.528846915 -0.593633667
0.237933653 0.586984704 -0.593633667
0.118059704 0.622274355 -0.593633667
-0.006409671 0.633342232 -0.593633667
-0.130629552 0.619757522 -0.593633667
-0.249764732 0.582049006 -0.593633667
-0.359177921 0.521684471 -0.593633667
-0.454610258 0.441013582 -0.593633667
-0.532347077 0.343176421 -0.593633667
-0.589362505 0.231981258 -0.593633667
-0.623437239 0.111756321 -0.593633667
-0.633244935 -0.012818686 -0.593633667
-0.618403832 -0.13689473 -0.593633667
-0.579491614 -0.255642204 -0.593633667
-0.518022922 -0.364438909 -0.593633667
-0.436390401 -0.45904998 -0.593633667
-0.337771563 -0.535792719 -0.593633667
-0.226005106 -0.591679946 -0.593633667
-0.105441492 -0.624536275 -0.593633667
0.019226388 -0.633082785 -0.593633667
0.143145889 -0.616986808 -0.593633667
0.261493495 -0.576874873 -0.593633667
0.369662574 -0.51430832 -0.593633667
0.463442689 -0.431722527 -0.593633667
0.539183488 -0.332332112 -0.593633667
0.593936791 -0.220005807 -0.593633667
0.625571348 -0.099115865 -0.593633667
0.561125843 0 -0.618063315
0.547224157 0.124128699 -0.618063315
0.506207917 0.242106912 -0.618063315
0.440109447 0.348088906 -0.618063315
0.352203878 0.436823351 -0.618063315
0.246846866 0.503913521 -0.618063315
0.129258774 0.546035146 -0.618063315
0.005266005 0.561101133 -0.618063315
-0.118987691 0.548364971 -0.618063315
-0.237345634 0.508457728 -0.618063315
-0.343943276 0.44335678 -0.618063315
-0.433498782 0.35628783 -0.618063315
-0.501574743 0.25156508 -0.618063315
-0.544798044 0.134377465 -0.618063315
-0.561027003 0.010531546 -0.618063315
-0.549457488 -0.113836203 -0.618063315
-0.510662758 -0.232563452 -0.618063315
-0.446565065 -0.339767354 -0.618063315
-0.360340401 -0.430136033 -0.618063315
-0.256261136 -0.499191789 -0.618063315
-0.139484321 -0.543512959 -0.618063315
-0.01579616 -0.560903462 -0.618063315
0.108674689 -0.550501611 -0.618063315
0.227760788 -0.512822811 -0.618063315
0.335561507 -0.449734018 -0.618063315
0.4267354 -0.364361236 -0.618063315
0.496764868 -0.260934623 -0.618063315
0.542180003 -0.144578891 -0.618063315
0.560730518 -0.021059382 -0.618063315
0.486143272 0 -0.63948182
0.470119507 0.123785824 -0.63948182
0.42310453 0.239411441 -0.63948182
0.348197661 0.33925458 -0.63948182
0.25033691 0.416733383 -0.63948182
0.135973453 0.466740293 -0.63948182
0.012646356 0.485978756 -0.63948182
-0.111514414 0.473180533 -0.63948182
-0.228323933 0.429189309 -0.63948182
-0.330081884 0.356905073 -0.63948182
-0.410080181 0.261092945 -0.63948182
-0.463045178 0.148069052 -0.63948182
-0.485485317 0.025284153 -0.63948182
-0.475921299 -0.099167529 -0.63948182
-0.434983603 -0.217081889 -0.63948182
-0.365370923 -0.32068578 -0.63948182
-0.271672267 -0.403149427 -0.63948182
-0.160064434 -0.459036663 -0.63948182
-0.037904836 -0.48466329 -0.63948182
0.086753524 -0.478339949 -0.63948182
0.205692919 -0.440483489 -0.63948182
0.311072629 -0.373589482 -0.63948182
0.395945812 -0.282067713 -0.63948182
0.454717461 -0.171951481 -0.63948182
0.483513231 -0.050499865 -0.63948182
0.40879226 0 -0.657784835
0.389780116 0.123217584 -0.657784835
0.334512122 0.23497394 -0.657784835
0.248129093 0.324873922 -0.657784835
0.138666047 0.384555379 -0.657784835
0.016304818 0.408466969 -0.657784835
-0.107573022 0.394384529 -0.657784835
-0.221444833 0.343617953 -0.657784835
-0.314718695 0.260889354 -0.657784835
-0.378718632 0.153893828 -0.657784835
-0.407491614 0.032583688 -0.657784835
-0.39836129 -0.091757261 -0.657784835
-0.352176926 -0.207563302 -0.657784835
-0.273234417 -0.304062601 -0.657784835
-0.16887669 -0.372279164 -0.657784835
-0.048810701 -0.405867746 -0.657784835
0.075795471 -0.401704068 -0.657784835
0.19335144 -0.360175419 -0.657784835
0.2929226 -0.285144634 -0.657784835
0.365247223 -0.18359079 -0.657784835
0.403597951 -0.064960034 -0.657784835
0.329449653 0 -0.672883187
0.30595819 0.122174712 -0.672883187
0.238833925 0.226926047 -0.672883187
0.137649472 0.299315381 -0.672883187
0.016834781 0.329019246 -0.672883187
-0.106380723 0.311801565 -0.672883187
-0.214425237 0.250117756 -0.672883187
-0.291890494 0.15276457 -0.672883187
-0.327729149 0.033625575 -0.672883187
-0.316830238 -0.090308774 -0.672883187
-0.260748059 -0.201364158 -0.672883187
-0.16748051 -0.283702931 -0.672883187
-0.050328509 -0.325582732 -0.672883187
0.074000857 -0.321031069 -0.672883187
0.187776937 -0.270697056 -0.672883187
0.274774083 -0.181758844 -0.672883187
0.322585604 -0.066899941 -0.672883187
0.248502001 0 -0.684703321
0.217641814 0.119938674 -0.684703321
0.132725988 0.210088211 -0.684703321
0.014845045 0.248058197 -0.684703321
-0.106722958 0.224418036 -0.684703321
-0.201784209 0.145039228 -0.684703321
-0.246728371 0.029637066 -0.684703321
-0.230392674 -0.093126046 -0.684703321
-0.156834411 -0.192759467 -0.684703321
-0.044323228 -0.244517271 -0.684703321
0.079196503 -0.235544388 -0.684703321
0.18304622 -0.168069408 -0.684703321
0.241432797 -0.058851075 -0.684703321
0.166343672 0 -0.693187648
0.121434505 0.113683236 -0.693187648
0.010955998 0.165982479 -0.693187648
-0.105438271 0.128658417 -0.693187648
-0.164900468 0.021864416 -0.693187648
-0.135323599 -0.096735416 -0.693187648
-0.032677883 -0.163102339 -0.693187648
0.087612465 -0.141401107 -0.693187648
0.160595901 -0.043349439 -0.693187648
0.083374933 0 -0.698294835
0.005796312 0.083173206 -0.698294835
