# .PCD v.5 - Point Cloud Data file format
VERSION .5
FIELDS x y z
SIZE 4 4 4
TYPE F F F
COUNT 1 1 1
WIDTH 1304
HEIGHT 1
POINTS 1304
DATA ascii
0.885289652 0.465040033 0.375
0.822729657 0.568432856 0.375
0.748154659 0.663524382 0.375
0.662653739 0.748925913 0.375
0.567475536 0.823390257 0.375
0.464010018 0.885829952 0.375
0.353768177 0.935333137 0.375
0.238359967 0.971176877 0.375
0.119470788 0.992837716 0.375
-0.001163122 0.999999324 0.375
-0.121780046 0.992557112 0.375
-0.240618515 0.970619766 0.375
-0.355943032 0.934507655 0.375
-0.466069418 0.884748155 0.375
-0.569389406 0.822067944 0.375
-0.664394129 0.747382393 0.375
-0.749696153 0.661782198 0.375
-0.824049744 0.566517449 0.375
-0.886369053 0.462979376 0.375
-0.93574398 0.352680032 0.375
-0.971453462 0.237230208 0.375
-0.992976004 0.118315916 0.375
-0.999997294 -0.002326242 0.375
-0.992414796 -0.122934428 0.375
-0.970339241 -0.241747301 0.375
-0.934093018 -0.357029737 0.375
-0.884205461 -0.467098173 0.375
-0.821405118 -0.570345186 0.375
-0.746609116 -0.665262976 0.375
-0.660909762 -0.75046538 0.375
-0.565558595 -0.824708115 0.375
-0.461948108 -0.886906954 0.375
-0.351591409 -0.936153556 0.375
-0.236100129 -0.971728732 0.375
-0.117160883 -0.993112948 0.375
0.00348936 -0.999993912 0.375
0.124088645 -0.992271136 0.375
0.24287576 -0.970057403 0.375
0.35811596 -0.933677117 0.375
0.468126295 -0.883661571 0.375
0.571300195 -0.820741182 0.375
0.666130924 -0.745834829 0.375
0.751233591 -0.660036433 0.375
0.825365371 -0.564598977 0.375
0.887443657 -0.460916214 0.375
0.936561867 -0.35050231 0.375
0.972002688 -0.23496973 0.375
0.993248549 -0.116005693 0.375
1.037837969 0 0.32877836
1.030801657 0.120646564 0.32877836
1.009788131 0.239657213 0.32877836
0.975082325 0.355418217 0.32877836
0.927154834 0.466359908 0.32877836
0.866655534 0.570977964 0.32877836
0.794404769 0.667853812 0.32877836
0.711382226 0.755673857 0.32877836
0.618713655 0.8332473 0.32877836
0.517655601 0.899522278 0.32877836
0.409578366 0.953600132 0.32877836
0.29594743 0.994747591 0.32877836
0.178303577 1.022406712 0.32877836
0.058242007 1.036202451 0.32877836
-0.062609299 1.035947743 0.32877836
-0.18261165 1.021646042 0.32877836
-0.300137869 0.993491273 0.32877836
-0.41359435 0.951865202 0.32877836
-0.521442676 0.897332261 0.32877836
-0.622220469 0.830631891 0.32877836
-0.714561229 0.75266852 0.32877836
-0.797212854 0.664499297 0.32877836
-0.869054626 0.567319758 0.32877836
-0.929112402 0.462447614 0.32877836
-0.976571824 0.351304885 0.32877836
-1.010789365 0.235398617 0.32877836
-1.03130105 0.116300448 0.32877836
-1.037828749 -0.004374703 0.32877836
-1.030283949 -0.124990536 0.32877836
-1.008768955 -0.243911552 0.32877836
-0.973575501 -0.359525235 0.32877836
-0.925180793 -0.470263915 0.32877836
-0.864241044 -0.574626025 0.32877836
-0.791582568 -0.67119646 0.32877836
-0.708190583 -0.758665768 0.32877836
-0.615195848 -0.835847904 0.32877836
-0.513859328 -0.901696313 0.32877836
-0.405555104 -0.955318119 0.32877836
-0.291751732 -0.995986233 0.32877836
-0.173992336 -1.023149216 0.32877836
-0.053873681 -1.036438747 0.32877836
0.066975478 -1.035674628 0.32877836
0.186916479 -1.02086722 0.32877836
0.304322975 -0.992217303 0.32877836
0.417602986 -0.95011336 0.32877836
0.525220486 -0.895126299 0.32877836
0.625716228 -0.828001722 0.32877836
0.717727535 -0.749649809 0.32877836
0.800006774 -0.661132975 0.32877836
0.871438276 -0.563651472 0.32877836
0.93105346 -0.458527103 0.32877836
0.978043972 -0.34718531 0.32877836
1.01177264 -0.231135838 0.32877836
1.031782119 -0.111952266 0.32877836
1.070619696 0 0.280954945
1.063798366 0.120663039 0.280954945
1.0434213 0.239788497 0.280954945
1.009748158 0.355858386 0.280954945
0.963208029 0.467393653 0.280954945
0.904393962 0.572973032 0.280954945
0.834055412 0.671251147 0.280954945
0.753088687 0.760975665 0.280954945
0.662525528 0.841003245 0.280954945
0.563519958 0.910314116 0.280954945
0.457333585 0.968025065 0.280954945
0.345319515 1.013400694 0.280954945
0.228905118 1.045862792 0.280954945
0.109573837 1.064997703 0.280954945
-0.011153719 1.070561595 0.280954945
-0.131739145 1.062483567 0.280954945
-0.25064585 1.040866558 0.280954945
-0.366358633 1.005986027 0.280954945
-0.477402992 0.958286448 0.280954945
-0.582363916 0.898375647 0.280954945
-0.679903911 0.827017053 0.280954945
-0.768780047 0.745119972 0.280954945
-0.847859798 0.653727999 0.280954945
-0.916135467 0.554005722 0.280954945
-0.972737034 0.447223878 0.280954945
-1.016943237 0.334743163 0.280954945
-1.048190769 0.217996894 0.280954945
-1.066081448 0.098472741 0.280954945
-1.070387297 -0.022306227 0.280954945
-1.061053449 -0.142800953 0.280954945
-1.038198842 -0.261475998 0.280954945
-1.002114708 -0.376819116 0.280954945
-0.953260857 -0.487360515 0.280954945
-0.892259824 -0.591691592 0.280954945
-0.819888931 -0.688482879 0.280954945
-0.737070382 -0.776500989 0.280954945
-0.644859516 -0.854624326 0.280954945
-0.544431355 -0.921857382 0.280954945
-0.43706563 -0.977343424 0.280954945
-0.32413048 -1.020375404 0.280954945
-0.20706501 -1.050404977 0.280954945
-0.087360958 -1.067049482 0.280954945
0.033456314 -1.070096822 0.280954945
0.153847261 -1.059508166 0.280954945
0.272277767 -1.035418443 0.280954945
0.3872387 -0.998134621 0.280954945
0.497265141 -0.948131802 0.280954945
0.600955046 -0.886047158 0.280954945
0.696987121 -0.81267182 0.280954945
0.78413765 -0.728940793 0.280954945
0.861296094 -0.635921042 0.280954945
0.927479242 -0.534797896 0.280954945
0.981843735 -0.426859945 0.280954945
1.023696822 -0.313482616 0.280954945
1.052505176 -0.196110651 0.280954945
1.067901701 -0.076239692 0.280954945
1.098185471 0 0.231762746
1.091535015 0.120675768 0.231762746
1.071664194 0.239889944 0.231762746
1.038813678 0.356198641 0.231762746
0.993381343 0.468193161 0.231762746
0.935917454 0.574517057 0.231762746
0.867117996 0.673882564 0.231762746
0.787816249 0.765086196 0.231762746
0.698972694 0.847023319 0.231762746
0.601663379 0.918701534 0.231762746
0.497066886 0.979252695 0.231762746
0.386450059 1.027943423 0.231762746
0.271152658 1.064183991 0.231762746
0.152571132 1.087535461 0.231762746
0.032141707 1.097715009 0.231762746
-0.088677008 1.094599341 0.231762746
-0.208421693 1.078226195 0.231762746
-0.325642033 1.048793877 0.231762746
-0.438918288 1.006658863 0.231762746
-0.546878489 0.95233148 0.231762746
-0.648215051 0.886469727 0.231762746
-0.741700616 0.809871302 0.231762746
-0.826202911 0.723463944 0.231762746
-0.90069847 0.628294195 0.231762746
-0.964285023 0.525514723 0.231762746
-1.016192427 0.416370366 0.231762746
-1.055791994 0.302183047 0.231762746
-1.082604107 0.184335773 0.231762746
-1.096304024 0.064255876 0.231762746
-1.096725815 -0.056602271 0.231762746
-1.083864372 -0.176774866 0.231762746
-1.057875469 -0.294806414 0.231762746
-1.019073876 -0.40926735 0.231762746
-0.967929548 -0.518771355 0.231762746
-0.90506193 -0.621992148 0.231762746
-0.831232457 -0.717679547 0.231762746
-0.74733533 -0.804674613 0.231762746
-0.654386689 -0.881923688 0.231762746
-0.5535123 -0.948491151 0.231762746
-0.445933926 -1.003570756 0.231762746
-0.332954527 -1.046495396 0.231762746
-0.215942475 -1.076745177 0.231762746
-0.09631499 -1.093953725 0.231762746
0.024479036 -1.097912613 0.231762746
0.144976579 -1.088573893 0.231762746
0.263718206 -1.066050673 0.231762746
0.379265752 -1.030615747 0.231762746
0.490219738 -0.982698294 0.231762746
0.595236322 -0.922878676 0.231762746
0.69304357 -0.851881412 0.231762746
0.78245687 -0.770566399 0.231762746
0.862393273 -0.679918504 0.231762746
0.931884612 -0.581035627 0.231762746
0.990089226 -0.475115411 0.231762746
1.036302159 -0.36344073 0.231762746
1.069963692 -0.247364158 0.231762746
1.090666127 -0.128291581 0.231762746
1.09815872 -0.007665172 0.231762746
1.120400998 0 0.181441422
1.113882149 0.12068535 0.181441422
1.09440146 0.239966328 0.181441422
1.062185622 0.356454906 0.181441422
1.017609517 0.468795548 0.181441422
0.961191862 0.575680987 0.181441422
0.893589168 0.675867438 0.181441422
0.815588104 0.768189065 0.181441422
0.728096338 0.851571557 0.181441422
0.632131982 0.925044622 0.181441422
0.528811736 0.98775328 0.181441422
0.419337901 1.038967815 0.181441422
0.304984385 1.07809226 0.181441422
0.187081876 1.104671339 0.181441422
0.067002364 1.118395761 0.181441422
-0.05385683 1.11910582 0.181441422
-0.174089312 1.106793254 0.181441422
-0.292295981 1.081601338 0.181441422
-0.407101307 1.043823223 0.181441422
-0.517169344 0.993898518 0.181441422
-0.621219271 0.932408179 0.181441422
-0.718040296 0.860067747 0.181441422
-0.806505748 0.77771902 0.181441422
-0.885586187 0.686320261 0.181441422
-0.954361383 0.586935044 0.181441422
-1.012031024 0.480719878 0.181441422
-1.05792403 0.36891075 0.181441422
-1.09150636 0.252808743 0.181441422
-1.11238723 0.133764893 0.181441422
-1.120323655 0.013164469 0.181441422
-1.115223283 -0.107589145 0.181441422
-1.097145465 -0.227090783 0.181441422
-1.066300566 -0.343949848 0.181441422
-1.023047517 -0.456806495 0.181441422
-0.967889637 -0.564347451 0.181441422
-0.901468779 -0.665321303 0.181441422
-0.824557858 -0.758553053 0.181441422
-0.738051859 -0.842957798 0.181441422
-0.642957419 -0.917553351 0.181441422
-0.540381119 -0.981471671 0.181441422
-0.431516601 -1.033968964 0.181441422
-0.317630682 -1.074434337 0.181441422
-0.20004861 -1.102396911 0.181441422
-0.080138646 -1.117531294 0.181441422
0.040703862 -1.119661373 0.181441422
0.161072714 -1.108762362 0.181441422
0.279567222 -1.084961089 0.181441422
0.394808508 -1.048534519 0.181441422
0.505455551 -0.999906536 0.181441422
0.610220793 -0.939643006 0.181441422
0.707885119 -0.868445193 0.181441422
0.797312044 -0.787141601 0.181441422
0.87746094 -0.69667833 0.181441422
0.947399143 -0.598108067 0.181441422
1.006312808 -0.492577839 0.181441422
1.053516379 -0.381315662 0.181441422
1.088460565 -0.265616255 0.181441422
1.110738732 -0.146825968 0.181441422
1.120091638 -0.026327121 0.181441422
1.137158043 0 0.130236133
1.130735073 0.120692209 0.130236133
1.11153872 0.240021015 0.130236133
1.079785837 0.356638416 0.130236133
1.035835121 0.469227041 0.130236133
0.980183062 0.576515029 0.130236133
0.913458336 0.677290397 0.130236133
0.836414701 0.770414734 0.130236133
0.749922482 0.854836058 0.130236133
0.654958741 0.9296007 0.130236133
0.552596239 0.993864081 0.130236133
0.443991317 1.046900246 0.130236133
0.330370834 1.088110071 0.130236133
0.213018306 1.117028028 0.130236133
0.093259411 1.133327444 0.130236133
-0.027552991 1.136824193 0.130236133
-0.148054141 1.127478774 0.130236133
-0.266882792 1.105396756 0.130236133
-0.382696594 1.070827592 0.130236133
-0.494187252 1.024161791 0.130236133
-0.60009531 0.965926515 0.130236133
-0.699224372 0.896779622 0.130236133
-0.790454626 0.817502231 0.130236133
-0.872755485 0.728989902 0.130236133
-0.945197236 0.632242516 0.130236133
-1.006961538 0.528352984 0.130236133
-1.057350668 0.418494896 0.130236133
-1.095795405 0.303909269 0.130236133
-1.121861457 0.185890521 0.130236133
-1.135254367 0.065771855 0.130236133
-1.135822842 -0.055089804 0.130236133
-1.12356046 -0.17532914 0.130236133
-1.098605743 -0.293587865 0.130236133
-1.061240594 -0.408530066 0.130236133
-1.011887109 -0.518857295 0.130236133
-0.951102811 -0.623323236 0.130236133
-0.879574351 -0.720747788 0.130236133
-0.798109754 -0.810030391 0.130236133
-0.707629285 -0.890162462 0.130236133
-0.609155061 -0.960238785 0.130236133
-0.503799499 -1.019467743 0.130236133
-0.392752751 -1.067180252 0.130236133
-0.277269259 -1.102837328 0.130236133
-0.158653587 -1.126036169 0.130236133
-0.03824568 -1.136514708 0.130236133
0.082594271 -1.134154575 0.130236133
0.202501193 -1.118982431 0.130236133
0.320120554 -1.091169668 0.130236133
0.434123664 -1.051030475 0.130236133
0.543222682 -0.999018284 0.130236133
0.64618517 -0.935720653 0.130236133
0.741848007 -0.861852626 0.130236133
0.829130536 -0.778248654 0.130236133
0.907046767 -0.685853174 0.130236133
0.974716517 -0.585709933 0.130236133
1.031375353 -0.478950201 0.130236133
1.076383226 -0.366779995 0.130236133
1.109231704 -0.250466447 0.130236133
1.129549712 -0.131323497 0.130236133
1.137107729 -0.010697048 0.130236133
1.148374968 0 0.078396347
1.142014619 0.120696634 0.078396347
1.123004026 0.240056296 0.078396347
1.091553772 0.356756823 0.078396347
1.048012235 0.469505509 0.078396347
0.992861731 0.577053421 0.078396347
0.926713169 0.678209238 0.078396347
0.850299285 0.771852443 0.078396347
0.764466526 0.856945738 0.078396347
0.670165672 0.932546535 0.078396347
0.568441306 0.997817393 0.078396347
0.460420242 1.052035298 0.078396347
0.347299043 1.094599672 0.078396347
0.230330768 1.125039024 0.078396347
0.110811089 1.143016172 0.078396347
-0.009936059 1.148331982 0.078396347
-0.130573143 1.140927571 0.078396347
-0.249763852 1.120884956 0.078396347
-0.366187895 1.088426154 0.078396347
-0.478555627 1.043910714 0.078396347
-0.585622336 0.98783174 0.078396347
-0.68620203 0.920810426 0.078396347
-0.779180576 0.843589175 0.078396347
-0.863528038 0.757023378 0.078396347
-0.938310087 0.662071935 0.078396347
-1.002698355 0.559786635 0.078396347
-1.055979602 0.451300506 0.078396347
-1.097563627 0.337815263 0.078396347
-1.126989797 0.220587997 0.078396347
-1.143932155 0.100917248 0.078396347
-1.148203029 -0.019871374 0.078396347
-1.139755109 -0.140439878 0.078396347
-1.118681974 -0.259452711 0.078396347
-1.085217053 -0.375591553 0.078396347
-1.039731043 -0.487569919 0.078396347
-0.982727797 -0.594147409 0.078396347
-0.914838748 -0.694143452 0.078396347
-0.836815912 -0.786450378 0.078396347
-0.749523558 -0.870045691 0.078396347
-0.653928633 -0.944003395 0.078396347
-0.551090057 -1.007504251 0.078396347
-0.442146985 -1.059844852 0.078396347
-0.328306193 -1.100445415 0.078396347
-0.210828711 -1.128856201 0.078396347
-0.091015852 -1.1447625 0.078396347
0.029805201 -1.147988117 0.078396347
0.150296098 -1.138497321 0.078396347
0.269122146 -1.116395243 0.078396347
0.384967093 -1.081926709 0.078396347
0.496547709 -1.035473534 0.078396347
0.602628003 -0.977550284 0.078396347
0.702032908 -0.908798583 0.078396347
0.793661303 -0.829980002 0.078396347
0.876498209 -0.741967625 0.078396347
0.949626031 -0.645736377 0.078396347
1.012234723 -0.542352223 0.078396347
1.063630759 -0.432960363 0.078396347
1.103244819 -0.318772545 0.078396347
1.130638094 -0.201053643 0.078396347
1.145507144 -0.081107643 0.078396347
1.153997126 0 0.026174623
1.147667707 0.120698804 0.026174623
1.128748881 0.240073595 0.026174623
1.097448179 0.356814885 0.026174623
1.054108955 0.469642073 0.026174623
0.999206623 0.577317496 0.026174623
0.933343436 0.678660001 0.026174623
0.857241885 0.772557906 0.026174623
0.771736769 0.857981193 0.026174623
0.677766042 0.933992805 0.026174623
0.576360521 0.999758929 0.026174623
0.46863258 1.05455814 0.026174623
0.355763948 1.097789315 0.026174623
0.238992742 1.128978227 0.026174623
0.119599891 1.147782746 0.026174623
-0.001104917 1.153996597 0.026174623
-0.121797605 1.147551615 0.026174623
-0.241154228 1.1285185 0.026174623
-0.357865495 1.097106036 0.026174623
-0.470651135 1.053658804 0.026174623
-0.578273941 0.998653401 0.026174623
-0.679553338 0.932693212 0.026174623
-0.773378335 0.856501791 0.026174623
-0.858719714 0.770914924 0.026174623
-0.934641317 0.676871461 0.026174623
-1.000310319 0.575403018 0.026174623
-1.055006359 0.467622658 0.026174623
-1.098129445 0.354712684 0.026174623
-1.129206537 0.23791167 0.026174623
-1.147896734 0.118500869 0.026174623
-1.15399501 -0.002209834 0.026174623
-1.147434472 -0.122896296 0.026174623
-1.128287085 -0.242234639 0.026174623
-1.096762888 -0.358915776 0.026174623
-1.053207687 -0.471659766 0.026174623
-0.998099264 -0.579229857 0.026174623
-0.932042133 -0.680446052 0.026174623
-0.855760912 -0.774198055 0.026174623
-0.770092372 -0.859457448 0.026174623
-0.67597626 -0.935288973 0.026174623
-0.574444987 -1.000860791 0.026174623
-0.466612307 -1.05545361 0.026174623
-0.353661096 -1.098468568 0.026174623
-0.236830379 -1.129433813 0.026174623
-0.117401738 -1.148009668 0.026174623
0.003314748 -1.153992365 0.026174623
0.123994873 -1.147316276 0.026174623
0.243314829 -1.128054636 0.026174623
0.359965729 -1.096418734 0.026174623
0.472667964 -1.052755604 0.026174623
0.580185241 -0.997544211 0.026174623
0.681338142 -0.931390199 0.026174623
0.775017066 -0.855019248 0.026174623
0.860194394 -0.769269115 0.026174623
0.935935771 -0.675080439 0.026174623
1.001410346 -0.57348643 0.026174623
1.055899893 -0.465601528 0.026174623
1.098806685 -0.352609183 0.026174623
1.129660053 -0.235748872 0.026174623
1.148121551 -0.1163025 0.026174623
1.153997126 0 -0.026174623
1.147667707 0.120698804 -0.026174623
1.128748881 0.240073595 -0.026174623
1.097448179 0.356814885 -0.026174623
1.054108955 0.469642073 -0.026174623
0.999206623 0.577317496 -0.026174623
0.933343436 0.678660001 -0.026174623
0.857241885 0.772557906 -0.026174623
0.771736769 0.857981193 -0.026174623
0.677766042 0.933992805 -0.026174623
0.576360521 0.999758929 -0.026174623
0.46863258 1.05455814 -0.026174623
0.355763948 1.097789315 -0.026174623
0.238992742 1.128978227 -0.026174623
0.119599891 1.147782746 -0.026174623
-0.001104917 1.153996597 -0.026174623
-0.121797605 1.147551615 -0.026174623
-0.241154228 1.1285185 -0.026174623
-0.357865495 1.097106036 -0.026174623
-0.470651135 1.053658804 -0.026174623
-0.578273941 0.998653401 -0.026174623
-0.679553338 0.932693212 -0.026174623
-0.773378335 0.856501791 -0.026174623
-0.858719714 0.770914924 -0.026174623
-0.934641317 0.676871461 -0.026174623
-1.000310319 0.575403018 -0.026174623
-1.055006359 0.467622658 -0.026174623
-1.098129445 0.354712684 -0.026174623
-1.129206537 0.23791167 -0.026174623
-1.147896734 0.118500869 -0.026174623
-1.15399501 -0.002209834 -0.026174623
-1.147434472 -0.122896296 -0.026174623
-1.128287085 -0.242234639 -0.026174623
-1.096762888 -0.358915776 -0.026174623
-1.053207687 -0.471659766 -0.026174623
-0.998099264 -0.579229857 -0.026174623
-0.932042133 -0.680446052 -0.026174623
-0.855760912 -0.774198055 -0.026174623
-0.770092372 -0.859457448 -0.026174623
-0.67597626 -0.935288973 -0.026174623
-0.574444987 -1.000860791 -0.026174623
-0.466612307 -1.05545361 -0.026174623
-0.353661096 -1.098468568 -0.026174623
-0.236830379 -1.129433813 -0.026174623
-0.117401738 -1.148009668 -0.026174623
0.003314748 -1.153992365 -0.026174623
0.123994873 -1.147316276 -0.026174623
0.243314829 -1.128054636 -0.026174623
0.359965729 -1.096418734 -0.026174623
0.472667964 -1.052755604 -0.026174623
0.580185241 -0.997544211 -0.026174623
0.681338142 -0.931390199 -0.026174623
0.775017066 -0.855019248 -0.026174623
0.860194394 -0.769269115 -0.026174623
0.935935771 -0.675080439 -0.026174623
1.001410346 -0.57348643 -0.026174623
1.055899893 -0.465601528 -0.026174623
1.098806685 -0.352609183 -0.026174623
1.129660053 -0.235748872 -0.026174623
1.148121551 -0.1163025 -0.026174623
1.148374968 0 -0.078396347
1.142014619 0.120696634 -0.078396347
1.123004026 0.240056296 -0.078396347
1.091553772 0.356756823 -0.078396347
1.048012235 0.469505509 -0.078396347
0.992861731 0.577053421 -0.078396347
0.926713169 0.678209238 -0.078396347
0.850299285 0.771852443 -0.078396347
0.764466526 0.856945738 -0.078396347
0.670165672 0.932546535 -0.078396347
0.568441306 0.997817393 -0.078396347
0.460420242 1.052035298 -0.078396347
0.347299043 1.094599672 -0.078396347
0.230330768 1.125039024 -0.078396347
0.110811089 1.143016172 -0.078396347
-0.009936059 1.148331982 -0.078396347
-0.130573143 1.140927571 -0.078396347
-0.249763852 1.120884956 -0.078396347
-0.366187895 1.088426154 -0.078396347
-0.478555627 1.043910714 -0.078396347
-0.585622336 0.98783174 -0.078396347
-0.68620203 0.920810426 -0.078396347
-0.779180576 0.843589175 -0.078396347
-0.863528038 0.757023378 -0.078396347
-0.938310087 0.662071935 -0.078396347
-1.002698355 0.559786635 -0.078396347
-1.055979602 0.451300506 -0.078396347
-1.097563627 0.337815263 -0.078396347
-1.126989797 0.220587997 -0.078396347
-1.143932155 0.100917248 -0.078396347
-1.148203029 -0.019871374 -0.078396347
-1.139755109 -0.140439878 -0.078396347
-1.118681974 -0.259452711 -0.078396347
-1.085217053 -0.375591553 -0.078396347
-1.039731043 -0.487569919 -0.078396347
-0.982727797 -0.594147409 -0.078396347
-0.914838748 -0.694143452 -0.078396347
-0.836815912 -0.786450378 -0.078396347
-0.749523558 -0.870045691 -0.078396347
-0.653928633 -0.944003395 -0.078396347
-0.551090057 -1.007504251 -0.078396347
-0.442146985 -1.059844852 -0.078396347
-0.328306193 -1.100445415 -0.078396347
-0.210828711 -1.128856201 -0.078396347
-0.091015852 -1.1447625 -0.078396347
0.029805201 -1.147988117 -0.078396347
0.150296098 -1.138497321 -0.078396347
0.269122146 -1.116395243 -0.078396347
0.384967093 -1.081926709 -0.078396347
0.496547709 -1.035473534 -0.078396347
0.602628003 -0.977550284 -0.078396347
0.702032908 -0.908798583 -0.078396347
0.793661303 -0.829980002 -0.078396347
0.876498209 -0.741967625 -0.078396347
0.949626031 -0.645736377 -0.078396347
1.012234723 -0.542352223 -0.078396347
1.063630759 -0.432960363 -0.078396347
1.103244819 -0.318772545 -0.078396347
1.130638094 -0.201053643 -0.078396347
1.145507144 -0.081107643 -0.078396347
1.137158043 0 -0.130236133
1.130735073 0.120692209 -0.130236133
1.11153872 0.240021015 -0.130236133
1.079785837 0.356638416 -0.130236133
1.035835121 0.469227041 -0.130236133
0.980183062 0.576515029 -0.130236133
0.913458336 0.677290397 -0.130236133
0.836414701 0.770414734 -0.130236133
0.749922482 0.854836058 -0.130236133
0.654958741 0.9296007 -0.130236133
0.552596239 0.993864081 -0.130236133
0.443991317 1.046900246 -0.130236133
0.330370834 1.088110071 -0.130236133
0.213018306 1.117028028 -0.130236133
0.093259411 1.133327444 -0.130236133
-0.027552991 1.136824193 -0.130236133
-0.148054141 1.127478774 -0.130236133
-0.266882792 1.105396756 -0.130236133
-0.382696594 1.070827592 -0.130236133
-0.494187252 1.024161791 -0.130236133
-0.60009531 0.965926515 -0.130236133
-0.699224372 0.896779622 -0.130236133
-0.790454626 0.817502231 -0.130236133
-0.872755485 0.728989902 -0.130236133
-0.945197236 0.632242516 -0.130236133
-1.006961538 0.528352984 -0.130236133
-1.057350668 0.418494896 -0.130236133
-1.095795405 0.303909269 -0.130236133
-1.121861457 0.185890521 -0.130236133
-1.135254367 0.065771855 -0.130236133
-1.135822842 -0.055089804 -0.130236133
-1.12356046 -0.17532914 -0.130236133
-1.098605743 -0.293587865 -0.130236133
-1.061240594 -0.408530066 -0.130236133
-1.011887109 -0.518857295 -0.130236133
-0.951102811 -0.623323236 -0.130236133
-0.879574351 -0.720747788 -0.130236133
-0.798109754 -0.810030391 -0.130236133
-0.707629285 -0.890162462 -0.130236133
-0.609155061 -0.960238785 -0.130236133
-0.503799499 -1.019467743 -0.130236133
-0.392752751 -1.067180252 -0.130236133
-0.277269259 -1.102837328 -0.130236133
-0.158653587 -1.126036169 -0.130236133
-0.03824568 -1.136514708 -0.130236133
0.082594271 -1.134154575 -0.130236133
0.202501193 -1.118982431 -0.130236133
0.320120554 -1.091169668 -0.130236133
0.434123664 -1.051030475 -0.130236133
0.543222682 -0.999018284 -0.130236133
0.64618517 -0.935720653 -0.130236133
0.741848007 -0.861852626 -0.130236133
0.829130536 -0.778248654 -0.130236133
0.907046767 -0.685853174 -0.130236133
0.974716517 -0.585709933 -0.130236133
1.031375353 -0.478950201 -0.130236133
1.076383226 -0.366779995 -0.130236133
1.109231704 -0.250466447 -0.130236133
1.129549712 -0.131323497 -0.130236133
1.137107729 -0.010697048 -0.130236133
1.120400998 0 -0.181441422
1.113882149 0.12068535 -0.181441422
1.09440146 0.239966328 -0.181441422
1.062185622 0.356454906 -0.181441422
1.017609517 0.468795548 -0.181441422
0.961191862 0.575680987 -0.181441422
0.893589168 0.675867438 -0.181441422
0.815588104 0.768189065 -0.181441422
0.728096338 0.851571557 -0.181441422
0.632131982 0.925044622 -0.181441422
0.528811736 0.98775328 -0.181441422
0.419337901 1.038967815 -0.181441422
0.304984385 1.07809226 -0.181441422
0.187081876 1.104671339 -0.181441422
0.067002364 1.118395761 -0.181441422
-0.05385683 1.11910582 -0.181441422
-0.174089312 1.106793254 -0.181441422
-0.292295981 1.081601338 -0.181441422
-0.407101307 1.043823223 -0.181441422
-0.517169344 0.993898518 -0.181441422
-0.621219271 0.932408179 -0.181441422
-0.718040296 0.860067747 -0.181441422
-0.806505748 0.77771902 -0.181441422
-0.885586187 0.686320261 -0.181441422
-0.954361383 0.586935044 -0.181441422
-1.012031024 0.480719878 -0.181441422
-1.05792403 0.36891075 -0.181441422
-1.09150636 0.252808743 -0.181441422
-1.11238723 0.133764893 -0.181441422
-1.120323655 0.013164469 -0.181441422
-1.115223283 -0.107589145 -0.181441422
-1.097145465 -0.227090783 -0.181441422
-1.066300566 -0.343949848 -0.181441422
-1.023047517 -0.456806495 -0.181441422
-0.967889637 -0.564347451 -0.181441422
-0.901468779 -0.665321303 -0.181441422
-0.824557858 -0.758553053 -0.181441422
-0.738051859 -0.842957798 -0.181441422
-0.642957419 -0.917553351 -0.181441422
-0.540381119 -0.981471671 -0.181441422
-0.431516601 -1.033968964 -0.181441422
-0.317630682 -1.074434337 -0.181441422
-0.20004861 -1.102396911 -0.181441422
-0.080138646 -1.117531294 -0.181441422
0.040703862 -1.119661373 -0.181441422
0.161072714 -1.108762362 -0.181441422
0.279567222 -1.084961089 -0.181441422
0.394808508 -1.048534519 -0.181441422
0.505455551 -0.999906536 -0.181441422
0.610220793 -0.939643006 -0.181441422
0.707885119 -0.868445193 -0.181441422
0.797312044 -0.787141601 -0.181441422
0.87746094 -0.69667833 -0.181441422
0.947399143 -0.598108067 -0.181441422
1.006312808 -0.492577839 -0.181441422
1.053516379 -0.381315662 -0.181441422
1.088460565 -0.265616255 -0.181441422
1.110738732 -0.146825968 -0.181441422
1.120091638 -0.026327121 -0.181441422
1.098185471 0 -0.231762746
1.091535015 0.120675768 -0.231762746
1.071664194 0.239889944 -0.231762746
1.038813678 0.356198641 -0.231762746
0.993381343 0.468193161 -0.231762746
0.935917454 0.574517057 -0.231762746
0.867117996 0.673882564 -0.231762746
0.787816249 0.765086196 -0.231762746
0.698972694 0.847023319 -0.231762746
0.601663379 0.918701534 -0.231762746
0.497066886 0.979252695 -0.231762746
0.386450059 1.027943423 -0.231762746
0.271152658 1.064183991 -0.231762746
0.152571132 1.087535461 -0.231762746
0.032141707 1.097715009 -0.231762746
-0.088677008 1.094599341 -0.231762746
-0.208421693 1.078226195 -0.231762746
-0.325642033 1.048793877 -0.231762746
-0.438918288 1.006658863 -0.231762746
-0.546878489 0.95233148 -0.231762746
-0.648215051 0.886469727 -0.231762746
-0.741700616 0.809871302 -0.231762746
-0.826202911 0.723463944 -0.231762746
-0.90069847 0.628294195 -0.231762746
-0.964285023 0.525514723 -0.231762746
-1.016192427 0.416370366 -0.231762746
-1.055791994 0.302183047 -0.231762746
-1.082604107 0.184335773 -0.231762746
-1.096304024 0.064255876 -0.231762746
-1.096725815 -0.056602271 -0.231762746
-1.083864372 -0.176774866 -0.231762746
-1.057875469 -0.294806414 -0.231762746
-1.019073876 -0.40926735 -0.231762746
-0.967929548 -0.518771355 -0.231762746
-0.90506193 -0.621992148 -0.231762746
-0.831232457 -0.717679547 -0.231762746
-0.74733533 -0.804674613 -0.231762746
-0.654386689 -0.881923688 -0.231762746
-0.5535123 -0.948491151 -0.231762746
-0.445933926 -1.003570756 -0.231762746
-0.332954527 -1.046495396 -0.231762746
-0.215942475 -1.076745177 -0.231762746
-0.09631499 -1.093953725 -0.231762746
0.024479036 -1.097912613 -0.231762746
0.144976579 -1.088573893 -0.231762746
0.263718206 -1.066050673 -0.231762746
0.379265752 -1.030615747 -0.231762746
0.490219738 -0.982698294 -0.231762746
0.595236322 -0.922878676 -0.231762746
0.69304357 -0.851881412 -0.231762746
0.78245687 -0.770566399 -0.231762746
0.862393273 -0.679918504 -0.231762746
0.931884612 -0.581035627 -0.231762746
0.990089226 -0.475115411 -0.231762746
1.036302159 -0.36344073 -0.231762746
1.069963692 -0.247364158 -0.231762746
1.090666127 -0.128291581 -0.231762746
1.09815872 -0.007665172 -0.231762746
1.070619696 0 -0.280954945
1.063798366 0.120663039 -0.280954945
1.0434213 0.239788497 -0.280954945
1.009748158 0.355858386 -0.280954945
0.963208029 0.467393653 -0.280954945
0.904393962 0.572973032 -0.280954945
0.834055412 0.671251147 -0.280954945
0.753088687 0.760975665 -0.280954945
0.662525528 0.841003245 -0.280954945
0.563519958 0.910314116 -0.280954945
0.457333585 0.968025065 -0.280954945
0.345319515 1.013400694 -0.280954945
0.228905118 1.045862792 -0.280954945
0.109573837 1.064997703 -0.280954945
-0.011153719 1.070561595 -0.280954945
-0.131739145 1.062483567 -0.280954945
-0.25064585 1.040866558 -0.280954945
-0.366358633 1.005986027 -0.280954945
-0.477402992 0.958286448 -0.280954945
-0.582363916 0.898375647 -0.280954945
-0.679903911 0.827017053 -0.280954945
-0.768780047 0.745119972 -0.280954945
-0.847859798 0.653727999 -0.280954945
-0.916135467 0.554005722 -0.280954945
-0.972737034 0.447223878 -0.280954945
-1.016943237 0.334743163 -0.280954945
-1.048190769 0.217996894 -0.280954945
-1.066081448 0.098472741 -0.280954945
-1.070387297 -0.022306227 -0.280954945
-1.061053449 -0.142800953 -0.280954945
-1.038198842 -0.261475998 -0.280954945
-1.002114708 -0.376819116 -0.280954945
-0.953260857 -0.487360515 -0.280954945
-0.892259824 -0.591691592 -0.280954945
-0.819888931 -0.688482879 -0.280954945
-0.737070382 -0.776500989 -0.280954945
-0.644859516 -0.854624326 -0.280954945
-0.544431355 -0.921857382 -0.280954945
-0.43706563 -0.977343424 -0.280954945
-0.32413048 -1.020375404 -0.280954945
-0.20706501 -1.050404977 -0.280954945
-0.087360958 -1.067049482 -0.280954945
0.033456314 -1.070096822 -0.280954945
0.153847261 -1.059508166 -0.280954945
0.272277767 -1.035418443 -0.280954945
0.3872387 -0.998134621 -0.280954945
0.497265141 -0.948131802 -0.280954945
0.600955046 -0.886047158 -0.280954945
0.696987121 -0.81267182 -0.280954945
0.78413765 -0.728940793 -0.280954945
0.861296094 -0.635921042 -0.280954945
0.927479242 -0.534797896 -0.280954945
0.981843735 -0.426859945 -0.280954945
1.023696822 -0.313482616 -0.280954945
1.052505176 -0.196110651 -0.280954945
1.067901701 -0.076239692 -0.280954945
1.037837969 0 -0.32877836
1.030801657 0.120646564 -0.32877836
1.009788131 0.239657213 -0.32877836
0.975082325 0.355418217 -0.32877836
0.927154834 0.466359908 -0.32877836
0.866655534 0.570977964 -0.32877836
0.794404769 0.667853812 -0.32877836
0.711382226 0.755673857 -0.32877836
0.618713655 0.8332473 -0.32877836
0.517655601 0.899522278 -0.32877836
0.409578366 0.953600132 -0.32877836
0.29594743 0.994747591 -0.32877836
0.178303577 1.022406712 -0.32877836
0.058242007 1.036202451 -0.32877836
-0.062609299 1.035947743 -0.32877836
-0.18261165 1.021646042 -0.32877836
-0.300137869 0.993491273 -0.32877836
-0.41359435 0.951865202 -0.32877836
-0.521442676 0.897332261 -0.32877836
-0.622220469 0.830631891 -0.32877836
-0.714561229 0.75266852 -0.32877836
-0.797212854 0.664499297 -0.32877836
-0.869054626 0.567319758 -0.32877836
-0.929112402 0.462447614 -0.32877836
-0.976571824 0.351304885 -0.32877836
-1.010789365 0.235398617 -0.32877836
-1.03130105 0.116300448 -0.32877836
-1.037828749 -0.004374703 -0.32877836
-1.030283949 -0.124990536 -0.32877836
-1.008768955 -0.243911552 -0.32877836
-0.973575501 -0.359525235 -0.32877836
-0.925180793 -0.470263915 -0.32877836
-0.864241044 -0.574626025 -0.32877836
-0.791582568 -0.67119646 -0.32877836
-0.708190583 -0.758665768 -0.32877836
-0.615195848 -0.835847904 -0.32877836
-0.513859328 -0.901696313 -0.32877836
-0.405555104 -0.955318119 -0.32877836
-0.291751732 -0.995986233 -0.32877836
-0.173992336 -1.023149216 -0.32877836
-0.053873681 -1.036438747 -0.32877836
0.066975478 -1.035674628 -0.32877836
0.186916479 -1.02086722 -0.32877836
0.304322975 -0.992217303 -0.32877836
0.417602986 -0.95011336 -0.32877836
0.525220486 -0.895126299 -0.32877836
0.625716228 -0.828001722 -0.32877836
0.717727535 -0.749649809 -0.32877836
0.800006774 -0.661132975 -0.32877836
0.871438276 -0.563651472 -0.32877836
0.93105346 -0.458527103 -0.32877836
0.978043972 -0.34718531 -0.32877836
1.01177264 -0.231135838 -0.32877836
1.031782119 -0.111952266 -0.32877836
1 0 -0.375
0.992698086 0.120625498 -0.375
0.970898978 0.239489403 -0.375
0.934921029 0.354855845 -0.375
0.885289652 0.465040033 -0.375
0.822729657 0.568432856 -0.375
0.748154659 0.663524382 -0.375
0.662653739 0.748925913 -0.375
0.567475536 0.823390257 -0.375
0.464010018 0.885829952 -0.375
0.353768177 0.935333137 -0.375
0.238359967 0.971176877 -0.375
0.119470788 0.992837716 -0.375
-0.001163122 0.999999324 -0.375
-0.121780046 0.992557112 -0.375
-0.240618515 0.970619766 -0.375
-0.355943032 0.934507655 -0.375
-0.466069418 0.884748155 -0.375
-0.569389406 0.822067944 -0.375
-0.664394129 0.747382393 -0.375
-0.749696153 0.661782198 -0.375
-0.824049744 0.566517449 -0.375
-0.886369053 0.462979376 -0.375
-0.93574398 0.352680032 -0.375
-0.971453462 0.237230208 -0.375
-0.992976004 0.118315916 -0.375
-0.999997294 -0.002326242 -0.375
-0.992414796 -0.122934428 -0.375
-0.970339241 -0.241747301 -0.375
-0.934093018 -0.357029737 -0.375
-0.884205461 -0.467098173 -0.375
-0.821405118 -0.570345186 -0.375
-0.746609116 -0.665262976 -0.375
-0.660909762 -0.75046538 -0.375
-0.565558595 -0.824708115 -0.375
-0.461948108 -0.886906954 -0.375
-0.351591409 -0.936153556 -0.375
-0.236100129 -0.971728732 -0.375
-0.117160883 -0.993112948 -0.375
0.00348936 -0.999993912 -0.375
0.124088645 -0.992271136 -0.375
0.24287576 -0.970057403 -0.375
0.35811596 -0.933677117 -0.375
0.468126295 -0.883661571 -0.375
0.571300195 -0.820741182 -0.375
0.666130924 -0.745834829 -0.375
0.751233591 -0.660036433 -0.375
0.825365371 -0.564598977 -0.375
0.887443657 -0.460916214 -0.375
0.936561867 -0.35050231 -0.375
0.972002688 -0.23496973 -0.375
0.993248549 -0.116005693 -0.375
0.957290131 0 -0.419394678
0.949663287 0.120598659 -0.419394678
0.926904283 0.23927567 -0.419394678
0.889375765 0.354140006 -0.419394678
0.837675723 0.463361391 -0.419394678
0.772627957 0.565199465 -0.419394678
0.695268954 0.658031517 -0.419394678
0.60683137 0.740378339 -0.419394678
0.508724391 0.810927796 -0.419394678
0.402511276 0.868555737 -0.419394678
0.289884452 0.912343905 -0.419394678
0.172638539 0.941594568 -0.419394678
0.052641764 0.95584164 -0.419394678
-0.068193819 0.954858104 -0.419394678
-0.187942784 0.938659632 -0.419394678
-0.304697025 0.907504335 -0.419394678
-0.416596151 0.861888649 -0.419394678
-0.521857135 0.802539423 -0.419394678
-0.618802723 0.730402345 -0.419394678
-0.705888162 0.646626861 -0.419394678
-0.781725812 0.552547872 -0.419394678
-0.845107256 0.449664454 -0.419394678
-0.895022561 0.339615975 -0.419394678
-0.930676364 0.224155975 -0.419394678
-0.951500549 0.105124221 -0.419394678
-0.957163297 -0.015582608 -0.419394678
-0.947574379 -0.13604114 -0.419394678
-0.922886585 -0.25433196 -0.419394678
-0.883493298 -0.368570194 -0.419394678
-0.830022218 -0.476935544 -0.419394678
-0.763325368 -0.577701289 -0.419394678
-0.684465509 -0.669261804 -0.419394678
-0.594699215 -0.750158143 -0.419394678
-0.495456842 -0.819101284 -0.419394678
-0.388319742 -0.874992671 -0.419394678
-0.274995063 -0.916941716 -0.419394678
-0.157288548 -0.944279995 -0.419394678
-0.037075759 -0.956571892 -0.419394678
0.083727803 -0.953621545 -0.419394678
0.203197227 -0.935475966 -0.419394678
0.319428858 -0.902424291 -0.419394678
0.430570634 -0.854993172 -0.419394678
0.534851595 -0.79393839 -0.419394678
0.630610103 -0.720232805 -0.419394678
0.716320321 -0.635050859 -0.419394678
0.79061652 -0.539749862 -0.419394678
0.852314848 -0.435848363 -0.419394678
0.900432189 -0.325001952 -0.419394678
0.934201829 -0.208976883 -0.419394678
0.953085676 -0.089621926 -0.419394678
0.909916441 0 -0.461746106
0.901893655 0.120564362 -0.461746106
0.877966771 0.239002678 -0.461746106
0.838557717 0.353226393 -0.461746106
0.78436144 0.461221273 -0.461746106
0.716333641 0.561082922 -0.461746106
0.63567393 0.65105037 -0.461746106
0.543804672 0.72953712 -0.461746106
0.442345898 0.795159127 -0.461746106
0.333086745 0.846759205 -0.461746106
0.217953902 0.883427432 -0.461746106
0.098977634 0.904517196 -0.461746106
-0.021744017 0.909656599 -0.461746106
-0.142082232 0.898755011 -0.461746106
-0.259914952 0.872004672 -0.461746106
-0.373164301 0.829877301 -0.461746106
-0.479833228 0.773115776 -0.461746106
-0.578040719 0.702721038 -0.461746106
-0.666054973 0.619934435 -0.461746106
-0.742323935 0.526215835 -0.461746106
-0.805502671 0.423217884 -0.461746106
-0.854477078 0.31275686 -0.461746106
-0.888383537 0.196780644 -0.461746106
-0.906624136 0.077334376 -0.461746106
-0.90887722 -0.043475616 -0.461746106
-0.895103057 -0.163518954 -0.461746106
-0.865544541 -0.280678779 -0.461746106
-0.820722913 -0.392889082 -0.461746106
-0.76142856 -0.498171134 -0.461746106
-0.688707087 -0.594668377 -0.461746106
-0.603840873 -0.680679168 -0.461746106
-0.508326459 -0.754686784 -0.461746106
-0.403848156 -0.815386164 -0.461746106
-0.292248348 -0.86170693 -0.461746106
-0.175494998 -0.892832255 -0.461746106
-0.055646949 -0.908213272 -0.461746106
0.065182384 -0.90757875 -0.461746106
0.184862284 -0.890939878 -0.461746106
0.301282301 -0.858590068 -0.461746106
0.412389471 -0.811099781 -0.461746106
0.516224516 -0.749306465 -0.461746106
0.610956399 -0.674299792 -0.461746106
0.694914604 -0.587402437 -0.461746106
0.766618604 -0.49014676 -0.461746106
0.824803963 -0.384247776 -0.461746106
0.868444631 -0.271572923 -0.461746106
0.896771046 -0.154109121 -0.461746106
0.909283695 -0.033927741 -0.461746106
0.85810973 0 -0.501847955
0.849604141 0.120520173 -0.501847955
0.824255989 0.238651153 -0.501847955
0.782567777 0.352051109 -0.501847955
0.725365931 0.458472 -0.501847955
0.653784422 0.555804137 -0.501847955
0.569242283 0.642118005 -0.501847955
0.473415477 0.715702518 -0.501847955
0.368203678 0.775098936 -0.501847955
0.255692604 0.819129783 -0.501847955
0.138112677 0.846922191 -0.501847955
0.017794803 0.857925203 -0.501847955
-0.102875836 0.851920695 -0.501847955
-0.221507063 0.829027701 -0.501847955
-0.335747132 0.789700052 -0.501847955
-0.443331345 0.73471738 -0.501847955
-0.542126952 0.66516966 -0.501847955
-0.630175427 0.58243561 -0.501847955
-0.705731298 0.488155349 -0.501847955
-0.767296742 0.38419789 -0.501847955
-0.813651286 0.272624087 -0.501847955
-0.843875998 0.155645782 -0.501847955
-0.857371701 0.035581952 -0.501847955
-0.853870857 -0.085187255 -0.501847955
-0.833442867 -0.204267708 -0.501847955
-0.796492695 -0.319298756 -0.501847955
-0.743752842 -0.428000022 -0.501847955
-0.676268824 -0.528216609 -0.501847955
-0.595378444 -0.617961825 -0.501847955
-0.502685275 -0.695456557 -0.501847955
-0.400026867 -0.75916455 -0.501847955
-0.289438321 -0.807822856 -0.501847955
-0.173111946 -0.840466872 -0.501847955
-0.053353798 -0.856449462 -0.501847955
0.067462036 -0.855453788 -0.501847955
0.186940502 -0.837499587 -0.501847955
0.302713057 -0.802942784 -0.501847955
0.412484625 -0.752468433 -0.501847955
0.514079093 -0.687077139 -0.501847955
0.60548245 -0.608065219 -0.501847955
0.684882716 -0.516999008 -0.501847955
0.750705859 -0.415683801 -0.501847955
0.801646999 -0.306128074 -0.501847955
0.83669628 -0.190503659 -0.501847955
0.855158883 -0.071102698 -0.501847955
0.802122394 0 -0.53950485
0.7930253 0.120462482 -0.53950485
0.765940361 0.238192567 -0.53950485
0.721481934 0.350519834 -0.53950485
0.66065845 0.454896414 -0.53950485
0.584849541 0.548954779 -0.53950485
0.495774748 0.630561444 -0.53950485
0.395454513 0.697865362 -0.53950485
0.286164358 0.749339907 -0.53950485
0.170383263 0.783817504 -0.53950485
0.050737439 0.800516113 -0.53950485
-0.070059239 0.799056968 -0.53950485
-0.189266795 0.779473166 -0.53950485
-0.304181296 0.742208916 -0.53950485
-0.412196186 0.688109468 -0.53950485
-0.510861411 0.618401936 -0.53950485
-0.597938991 0.534667465 -0.53950485
-0.671453785 0.438805367 -0.53950485
-0.729738288 0.33299004 -0.53950485
-0.771470458 0.219621646 -0.53950485
-0.795703704 0.101271672 -0.53950485
-0.801888352 -0.019375404 -0.53950485
-0.78988412 -0.139582996 -0.53950485
-0.759963294 -0.256624488 -0.53950485
-0.712804555 -0.367845079 -0.53950485
-0.649477583 -0.470722003 -0.53950485
-0.571418798 -0.562921747 -0.53950485
-0.480398771 -0.642352984 -0.53950485
-0.378482071 -0.707214011 -0.53950485
-0.267980428 -0.756033614 -0.53950485
-0.151400303 -0.787704439 -0.53950485
-0.031386032 -0.801508111 -0.53950485
0.089340155 -0.797131528 -0.53950485
0.208039879 -0.77467396 -0.53950485
0.322020725 -0.734644804 -0.53950485
0.428697318 -0.677952023 -0.53950485
0.525649957 -0.605881555 -0.53950485
0.61067951 -0.520068142 -0.53950485
0.681857288 -0.422458252 -0.53950485
0.737568797 -0.315265927 -0.53950485
0.776550358 -0.200922564 -0.53950485
0.797917769 -0.082021763 -0.53950485
0.742227199 0 -0.574533332
0.732399127 0.120385771 -0.574533332
0.703175184 0.237583408 -0.574533332
0.655329297 0.348489207 -0.574533332
0.590128553 0.450166087 -0.574533332
0.50929964 0.539921375 -0.574533332
0.414983122 0.615378114 -0.574533332
0.309676751 0.674538009 -0.574533332
0.196169318 0.715834348 -0.574533332
0.077466801 0.738173496 -0.574533332
-0.043287242 0.740963852 -0.574533332
-0.162894924 0.72413152 -0.574533332
-0.278188716 0.688122266 -0.574533332
-0.386115334 0.633889709 -0.574533332
-0.483816594 0.562870073 -0.574533332
-0.568705107 0.476944144 -0.574533332
-0.638532801 0.378387469 -0.574533332
-0.691450454 0.269810091 -0.574533332
-0.726056664 0.154087426 -0.574533332
-0.74143497 0.034284118 -0.574533332
-0.737178111 -0.086427125 -0.574533332
-0.713398821 -0.204849548 -0.574533332
-0.670726838 -0.317847012 -0.574533332
-0.610292231 -0.422427045 -0.574533332
-0.533695466 -0.515820089 -0.574533332
-0.442965031 -0.595552849 -0.574533332
-0.340503707 -0.659513791 -0.574533332
-0.229024942 -0.706009059 -0.574533332
-0.111480989 -0.733807334 -0.574533332
0.009015276 -0.742172446 -0.574533332
0.129272792 -0.730882863 -0.574533332
0.246106823 -0.700237564 -0.574533332
0.356423292 -0.651048118 -0.574533332
0.457300727 -0.584617191 -0.574533332
0.546067626 -0.502704051 -0.574533332
0.620373207 -0.407477974 -0.574533332
0.67824966 -0.3014608 -0.574533332
0.718164263 -0.187460145 -0.574533332
0.739059973 -0.068495048 -0.574533332
0.678715947 0 -0.606762746
0.667972866 0.120281286 -0.606762746
0.636083715 0.236754819 -0.606762746
0.584058014 0.345733386 -0.606762746
0.513542742 0.443767044 -0.606762746
0.426770208 0.527752334 -0.606762746
0.326487377 0.595030529 -0.606762746
0.215868909 0.643471795 -0.606762746
0.098416663 0.671542625 -0.606762746
-0.022151167 0.678354379 -0.606762746
-0.142017756 0.663691415 -0.606762746
-0.257388478 0.62801792 -0.606762746
-0.364611033 0.572463214 -0.606762746
-0.460291068 0.498785996 -0.606762746
-0.541399634 0.40931867 -0.606762746
-0.605369069 0.306893512 -0.606762746
-0.650174288 0.194753002 -0.606762746
-0.67439689 0.076447181 -0.606762746
-0.677270058 -0.044278734 -0.606762746
-0.658702834 -0.163602913 -0.606762746
-0.619283004 -0.277747903 -0.606762746
-0.560258484 -0.383100206 -0.606762746
-0.483497818 -0.476324676 -0.606762746
-0.391431024 -0.554470099 -0.606762746
-0.286972668 -0.615062619 -0.606762746
-0.173429596 -0.656184054 -0.606762746
-0.054396249 -0.676532619 -0.606762746
0.066359123 -0.67546414 -0.606762746
0.18501376 -0.653012439 -0.606762746
0.297811402 -0.609888273 -0.606762746
0.401181205 -0.547456827 -0.606762746
0.491850784 -0.467694498 -0.606762746
0.566949804 -0.373126328 -0.606762746
0.624100851 -0.266746069 -0.606762746
0.661494688 -0.151921409 -0.606762746
0.677947537 -0.032287361 -0.606762746
0.61189806 0 -0.636036072
0.599989119 0.120134475 -0.636036072
0.564725849 0.235592765 -0.636036072
0.507480857 0.341880703 -0.636036072
0.430482381 0.434861076 -0.636036072
0.336727555 0.510914659 -0.636036072
0.229865747 0.5670811 -0.636036072
0.11405651 0.601174141 -0.636036072
-0.006192331 0.611866726 -0.636036072
-0.126200137 0.59874265 -0.636036072
-0.241295655 0.562312762 -0.636036072
-0.346998839 0.503995081 -0.636036072
-0.439195235 0.426059598 -0.636036072
-0.514296137 0.331539921 -0.636036072
-0.569378273 0.224115188 -0.636036072
-0.602297594 0.107966863 -0.636036072
-0.611772729 -0.012384027 -0.636036072
-0.597434861 -0.132252874 -0.636036072
-0.559842086 -0.246973833 -0.636036072
-0.500457688 -0.352081436 -0.636036072
-0.421593181 -0.443484414 -0.636036072
-0.326318332 -0.517624943 -0.636036072
-0.218341676 -0.571617134 -0.636036072
-0.101866159 -0.603359363 -0.636036072
0.018574455 -0.611616077 -0.636036072
0.138292067 -0.596065885 -0.636036072
0.252626717 -0.557314074 -0.636036072
0.357127975 -0.496869042 -0.636036072
0.447728174 -0.417083586 -0.636036072
0.520900737 -0.321063323 -0.636036072
0.573797453 -0.212545802 -0.636036072
0.604359339 -0.095755023 -0.636036072
0.542099066 0 -0.662210695
0.528668762 0.119919716 -0.662210695
0.489043309 0.233897498 -0.662210695
0.42518612 0.336285832 -0.662210695
0.340261273 0.42201145 -0.662210695
0.238476729 0.486826712 -0.662210695
0.12487584 0.527520068 -0.662210695
0.005087444 0.542075194 -0.662210695
-0.114953031 0.529770892 -0.662210695
-0.229297667 0.491216834 -0.662210695
-0.332280773 0.428323342 -0.662210695
-0.418799612 0.344206745 -0.662210695
-0.484567238 0.243034956 -0.662210695
-0.526324914 0.129820965 -0.662210695
-0.542003578 0.01017444 -0.662210695
-0.530826364 -0.109976221 -0.662210695
-0.493347094 -0.22467764 -0.662210695
-0.43142284 -0.328246449 -0.662210695
-0.348121901 -0.415550887 -0.662210695
-0.247571778 -0.482265085 -0.662210695
-0.134754656 -0.525083403 -0.662210695
-0.01526054 -0.541884225 -0.662210695
0.104989724 -0.531835083 -0.662210695
0.220037825 -0.495433904 -0.662210695
0.324183214 -0.43448434 -0.662210695
0.412265563 -0.352006396 -0.662210695
0.479920457 -0.252086795 -0.662210695
0.523795646 -0.139676479 -0.662210695
0.541717146 -0.020345296 -0.662210695
0.469659021 0 -0.685159093
0.454178593 0.119588468 -0.685159093
0.408757809 0.231293426 -0.685159093
0.336390899 0.327751062 -0.685159093
0.241848432 0.402602697 -0.685159093
0.131362836 0.450913962 -0.685159093
0.012217541 0.469500082 -0.685159093
-0.107733159 0.457135825 -0.685159093
-0.220581875 0.414636265 -0.685159093
-0.318889396 0.344803058 -0.685159093
-0.396175093 0.252239749 -0.685159093
-0.447344142 0.143048295 -0.685159093
-0.469023375 0.024426812 -0.685159093
-0.459783656 -0.095804935 -0.685159093
-0.420234084 -0.209721029 -0.685159093
-0.352981847 -0.309811897 -0.685159093
-0.262460344 -0.389479349 -0.685159093
-0.154636935 -0.443471548 -0.685159093
-0.036619551 -0.468229222 -0.685159093
0.083811867 -0.462120295 -0.685159093
0.198718239 -0.425547479 -0.685159093
0.300524711 -0.360921729 -0.685159093
0.382519996 -0.2725033 -0.685159093
0.439298803 -0.166120913 -0.685159093
0.46711816 -0.048787505 -0.685159093
0.394930844 0 -0.704769466
0.376563368 0.119039495 -0.704769466
0.323169412 0.227006393 -0.704769466
0.239715477 0.313858027 -0.704769466
0.133964129 0.371515792 -0.704769466
0.015751951 0.394616583 -0.704769466
-0.103925413 0.381011653 -0.704769466
-0.213936034 0.331966481 -0.704769466
-0.304047145 0.252043061 -0.704769466
-0.365876958 0.148675562 -0.704769466
-0.3936743 0.031478833 -0.704769466
-0.384853569 -0.088645936 -0.704769466
-0.340235235 -0.200525201 -0.704769466
-0.263969525 -0.293752381 -0.704769466
-0.163150383 -0.359655841 -0.704769466
-0.047155618 -0.392105495 -0.704769466
0.073225382 -0.388083 -0.704769466
0.186795238 -0.347962513 -0.704769466
0.282990117 -0.275475888 -0.704769466
0.352862341 -0.177365553 -0.704769466
0.389912664 -0.062757355 -0.704769466
0.318278603 0 -0.720946272
0.295583693 0.118031985 -0.720946272
0.230735492 0.219231389 -0.720946272
0.132982024 0.28916613 -0.720946272
0.016263944 0.31786279 -0.720946272
-0.102773543 0.30122893 -0.720946272
-0.207154459 0.241636709 -0.720946272
-0.281993008 0.147584595 -0.720946272
-0.316616438 0.032485392 -0.720946272
-0.306087089 -0.087246564 -0.720946272
-0.251906557 -0.194536258 -0.720946272
-0.161801545 -0.27408307 -0.720946272
-0.048621959 -0.314542802 -0.720946272
0.07149162 -0.310145478 -0.720946272
0.181409756 -0.261518202 -0.720946272
0.265456984 -0.175595725 -0.720946272
0.311647302 -0.064631483 -0.720946272
0.240075741 0 -0.733610701
0.210261968 0.115871767 -0.733610701
0.128225487 0.202964495 -0.733610701
0.014341676 0.239646986 -0.733610701
-0.103104173 0.21680842 -0.733610701
-0.194942066 0.140121206 -0.733610701
