# .PCD v.5 - Point Cloud Data file format
VERSION .5
FIELDS x y z
SIZE 4 4 4
TYPE F F F
COUNT 1 1 1
WIDTH 1321
HEIGHT 1
POINTS 1321
DATA ascii
0.081953957 -0.132268624 0.792214455
0.150223709 -0.040549688 0.792214455
0.232452337 0 0.782518081
0.203585275 0.112192356 0.782518081
0.124153794 0.196519527 0.782518081
0.013886268 0.232037196 0.782518081
-0.099830186 0.20992385 0.782518081
-0.188751844 0.135671774 0.782518081
-0.230793258 0.027722937 0.782518081
-0.215512612 -0.087111439 0.782518081
-0.146705158 -0.180309971 0.782518081
-0.041460584 -0.228724964 0.782518081
0.074081545 -0.220331599 0.782518081
0.17122406 -0.157214536 0.782518081
0.225839702 -0.05505014 0.782518081
0.308171932 0 0.769009357
0.28619768 0.114283978 0.769009357
0.22340868 0.21226988 0.769009357
0.128759291 0.279983901 0.769009357
0.015747496 0.307769323 0.769009357
-0.099510055 0.291663657 0.769009357
-0.200576443 0.233963738 0.769009357
-0.273038556 0.14289817 0.769009357
-0.306562547 0.031453846 0.769009357
-0.29636755 -0.084476122 0.769009357
-0.243907475 -0.188358922 0.769009357
-0.156663672 -0.265379791 0.769009357
-0.04707801 -0.304554758 0.769009357
0.069221464 -0.300297068 0.769009357
0.175649241 -0.25321391 0.769009357
0.25702762 -0.17001983 0.769009357
0.301751202 -0.062579164 0.769009357
0.382390145 0 0.751754097
0.364605913 0.115259495 0.751754097
0.312907438 0.219797995 0.751754097
0.232103513 0.303891728 0.751754097
0.12971021 0.359718618 0.751754097
0.015251761 0.382085863 0.751754097
-0.100625348 0.368912947 0.751754097
-0.207142674 0.321425163 0.751754097
-0.294392383 0.244039645 0.751754097
-0.354258841 0.143954494 0.751754097
-0.381173502 0.030479249 0.751754097
-0.372632865 -0.085831059 0.751754097
-0.32943135 -0.194157691 0.751754097
-0.255587394 -0.28442452 0.751754097
-0.157969679 -0.348235271 0.751754097
-0.04565823 -0.379654513 0.751754097
0.070900171 -0.375759749 0.751754097
0.180863711 -0.336913254 0.751754097
0.274004002 -0.266728382 0.751754097
0.341657493 -0.171733459 0.751754097
0.377531314 -0.060764548 0.751754097
0.454745391 0 0.730836366
0.439756531 0.115791036 0.730836366
0.395778047 0.223948897 0.730836366
0.325709087 0.317343601 0.730836366
0.234168737 0.389818385 0.730836366
0.127191519 0.436595566 0.730836366
0.011829583 0.4545915 0.730836366
-0.104312183 0.442619859 0.730836366
-0.213577482 0.401469837 0.730836366
-0.30876333 0.333854126 0.730836366
-0.383594885 0.244230087 0.730836366
-0.433139103 0.138505916 0.730836366
-0.45412993 0.023651159 0.730836366
-0.445183611 -0.092762729 0.730836366
-0.406889902 -0.203061514 0.730836366
-0.341773203 -0.29997408 0.730836366
-0.254126136 -0.377111758 0.730836366
-0.149726568 -0.42938948 0.730836366
-0.035456728 -0.453360995 0.730836366
0.081150491 -0.447446051 0.730836366
0.192408108 -0.412034575 0.730836366
0.2909818 -0.349460961 0.730836366
0.370373393 -0.263850186 0.730836366
0.425349237 -0.160845882 0.730836366
0.452285213 -0.047238298 0.730836366
0.524885164 0 0.706358074
0.511881327 0.116111766 0.706358074
0.473514148 0.226470279 0.706358074
0.411684691 0.325607357 0.706358074
0.32945656 0.40861083 0.706358074
0.2309041 0.471367937 0.706358074
0.120910512 0.51076911 0.706358074
0.004925897 0.524862049 0.706358074
-0.111302793 0.512948461 0.706358074
-0.222016512 0.475618654 0.706358074
-0.321729475 0.414722293 0.706358074
-0.40550098 0.333276747 0.706358074
-0.46918021 0.235317585 0.706358074
-0.509611906 0.125698609 0.706358074
-0.524792708 0.009851359 0.706358074
-0.513970417 -0.106484018 0.706358074
-0.47768127 -0.21754319 0.706358074
-0.417723368 -0.317823257 0.706358074
-0.337067581 -0.402355416 0.706358074
-0.239710343 -0.466951161 0.706358074
-0.130475635 -0.508409819 0.706358074
-0.014775954 -0.524677145 0.706358074
0.101655864 -0.514947105 0.706358074
0.213050708 -0.479701815 0.706358074
0.313889047 -0.420687653 0.706358074
0.399174415 -0.340828728 0.706358074
0.464680985 -0.24408199 0.706358074
0.507162954 -0.135241169 0.706358074
0.524515372 -0.019699248 0.706358074
0.592467749 0 0.678438477
0.580936967 0.116319705 0.678438477
0.546793452 0.228111714 0.678438477
0.491366227 0.331024568 0.678438477
0.416812773 0.421052426 0.678438477
0.326035053 0.494690992 0.678438477
0.222566553 0.549073914 0.678438477
0.110434741 0.582084359 0.678438477
-0.005995698 0.59243741 0.678438477
-0.122192757 0.579730078 0.678438477
-0.233633513 0.544456991 0.678438477
-0.335980181 0.487991139 0.678438477
-0.425248958 0.412530432 0.678438477
-0.497965093 0.321012148 0.678438477
-0.551298143 0.216998597 0.678438477
-0.583172138 0.104538466 0.678438477
-0.592346397 -0.011990783 0.678438477
-0.578463816 -0.128053295 0.678438477
-0.542064769 -0.239131385 0.678438477
-0.484566073 -0.340901384 0.678438477
-0.408205842 -0.429401937 0.678438477
-0.315956366 -0.501188196 0.678438477
-0.211408418 -0.55346591 0.678438477
-0.098631485 -0.584200191 0.678438477
0.017984639 -0.59219472 0.678438477
0.133900718 -0.577138312 0.678438477
0.244604767 -0.539617032 0.678438477
0.345787675 -0.481091381 0.678438477
0.43351094 -0.403839446 0.678438477
0.50435997 -0.310868226 0.678438477
0.555576995 -0.205796588 0.678438477
0.585168414 -0.092714402 0.678438477
0.65716389 0 0.647213595
0.646761946 0.116461855 0.647213595
0.615885409 0.229236868 0.647213595
0.56551174 0.334754911 0.647213595
0.497235622 0.429675593 0.647213595
0.413218477 0.510994001 0.647213595
0.316120043 0.576135832 0.647213595
0.209014173 0.623038887 0.647213595
0.095291524 0.650218351 0.647213595
-0.021447776 0.656813803 0.647213595
-0.137508101 0.642616449 0.647213595
-0.249215322 0.608075737 0.647213595
-0.353033115 0.554285124 0.647213595
-0.445674911 0.482947464 0.647213595
-0.524207941 0.396321098 0.647213595
-0.58614608 0.297148365 0.647213595
-0.629528548 0.188568784 0.647213595
-0.652981981 0.074019665 0.647213595
-0.655763913 -0.0428727 0.647213595
-0.637786277 -0.15840784 0.647213595
-0.599618191 -0.268928251 0.647213595
-0.542467945 -0.370935179 0.647213595
-0.468144749 -0.461199384 0.647213595
-0.379001459 -0.536863365 0.647213595
-0.277860091 -0.59553182 0.647213595
-0.167922484 -0.635347478 0.647213595
-0.052668942 -0.655049892 0.647213595
0.064251945 -0.654015341 0.647213595
0.179138803 -0.632276575 0.647213595
0.28835465 -0.590521782 0.647213595
0.388442031 -0.530072794 0.647213595
0.476232474 -0.452843251 0.647213595
0.548946787 -0.361278014 0.647213595
0.60428305 -0.258275771 0.647213595
0.640489478 -0.147097272 0.647213595
0.65641988 -0.031262103 0.647213595
0.718658395 0 0.612835554
0.709142405 0.116563022 0.612835554
0.680846444 0.230039146 0.612835554
0.634519863 0.337423224 0.612835554
0.571389514 0.435871439 0.612835554
0.493127256 0.522776624 0.612835554
0.40180568 0.595837297 0.612835554
0.299843224 0.653118618 0.612835554
0.189940125 0.693103627 0.612835554
0.075006908 0.714733414 0.612835554
-0.041912692 0.717435164 0.612835554
-0.157722332 0.70113733 0.612835554
-0.269355066 0.666271519 0.612835554
-0.373854564 0.613761072 0.612835554
-0.468453402 0.544996604 0.612835554
-0.550646352 0.461799181 0.612835554
-0.618256726 0.366372092 0.612835554
-0.669494023 0.261242497 0.612835554
-0.703001342 0.149194509 0.612835554
-0.717891322 0.033195454 0.612835554
-0.713769637 -0.083682704 0.612835554
-0.690745438 -0.198344722 0.612835554
-0.649428469 -0.307754046 0.612835554
-0.590912911 -0.409013227 0.612835554
-0.516748413 -0.499440653 0.612835554
-0.428899047 -0.576641567 0.612835554
-0.329691297 -0.638571482 0.612835554
-0.221752447 -0.683590332 0.612835554
-0.107941004 -0.710505896 0.612835554
0.008729003 -0.718605381 0.612835554
0.125167843 -0.70767429 0.612835554
0.238291906 -0.678002106 0.612835554
0.345105368 -0.63037463 0.612835554
0.442779525 -0.566053161 0.612835554
0.528727705 -0.486741104 0.612835554
0.600673774 -0.394538852 0.612835554
0.656712409 -0.291888165 0.612835554
0.695359558 -0.181507505 0.612835554
0.715591742 -0.066320045 0.612835554
0.776651669 0 0.57547184
0.767843445 0.116637297 0.57547184
0.741618566 0.230628961 0.57547184
0.698571879 0.33938937 0.57547184
0.639679794 0.440451559 0.57547184
0.566278133 0.531523179 0.57547184
0.480031835 0.610538493 0.57547184
0.382897186 0.675705231 0.57547184
0.277077449 0.725545245 0.57547184
0.164972885 0.758928035 0.57547184
0.049126315 0.775096394 0.57547184
-0.067834567 0.773683583 0.57547184
-0.183256786 0.754721647 0.57547184
-0.294522273 0.718640693 0.57547184
-0.39910724 0.666259128 0.57547184
-0.494639434 0.5987651 0.57547184
-0.578951939 0.517689547 0.57547184
-0.650132332 0.42487147 0.57547184
-0.706566059 0.32241622 0.57547184
-0.746973059 0.212647745 0.57547184
-0.770436798 0.098055874 0.57547184
-0.776425058 -0.018760154 0.57547184
-0.76480201 -0.135150654 0.57547184
-0.735831295 -0.248475592 0.57547184
-0.690170042 -0.356164467 0.57547184
-0.628853966 -0.45577462 0.57547184
-0.553273872 -0.545046638 0.57547184
-0.46514411 -0.621955602 0.57547184
-0.366463689 -0.684757022 0.57547184
-0.259470934 -0.732026399 0.57547184
-0.146592713 -0.762691544 0.57547184
-0.030389394 -0.776056892 0.57547184
0.086503234 -0.771819283 0.57547184
0.201433747 -0.750074836 0.57547184
0.311795227 -0.711316773 0.57547184
0.415084393 -0.656424224 0.57547184
0.508958382 -0.586642293 0.57547184
0.591287893 -0.503553813 0.57547184
0.66020548 -0.409043443 0.57547184
0.714147917 -0.305254921 0.57547184
0.751891651 -0.194542436 0.57547184
0.772580558 -0.079417231 0.57547184
0.830861173 0 0.535304485
0.822625672 0.116693156 0.535304485
0.79808243 0.231072985 0.535304485
0.757717992 0.340872021 0.535304485
0.702332543 0.443913606 0.535304485
0.633024045 0.538155041 0.535304485
0.55116647 0.621728085 0.535304485
0.458382565 0.692975984 0.535304485
0.356511678 0.750486318 0.535304485
0.247573299 0.793119002 0.535304485
0.133727025 0.820028885 0.535304485
0.017229744 0.830682506 0.535304485
-0.0996091 0.824868666 0.535304485
-0.214473292 0.80270262 0.535304485
-0.325085762 0.764623788 0.535304485
-0.429253729 0.711387044 0.535304485
-0.524912164 0.644047754 0.535304485
-0.610164734 0.563940854 0.535304485
-0.683321391 0.472654384 0.535304485
-0.742931876 0.371998007 0.535304485
-0.78781447 0.263967138 0.535304485
-0.817079421 0.15070338 0.535304485
-0.83014658 0.034452077 0.535304485
-0.826756902 -0.082482205 0.535304485
-0.806977586 -0.197781358 0.535304485
-0.771200736 -0.309159691 0.535304485
-0.720135593 -0.414409239 0.535304485
-0.654794473 -0.511443533 0.535304485
-0.5764727 -0.598338964 0.535304485
-0.486722925 -0.673372916 0.535304485
-0.387324348 -0.735057915 0.535304485
-0.280247449 -0.782171117 0.535304485
-0.167614921 -0.81377855 0.535304485
-0.051659593 -0.829253626 0.535304485
0.065319835 -0.828289568 0.535304485
0.181004363 -0.810905488 0.535304485
0.293100657 -0.777446007 0.535304485
0.399386521 -0.728574427 0.535304485
0.497754941 -0.665259579 0.535304485
0.586255862 -0.588756617 0.535304485
0.663134839 -0.500582137 0.535304485
0.726867822 -0.40248411 0.535304485
0.776191369 -0.296407233 0.535304485
0.810127689 -0.184454375 0.535304485
0.828004028 -0.068844892 0.535304485
0.881022806 0 0.49252918
0.873254776 0.116735942 0.49252918
0.85008767 0.231413348 0.49252918
0.811930019 0.342009985 0.49252918
0.759454698 0.446575577 0.49252918
0.693587065 0.543266204 0.49252918
0.615488636 0.63037681 0.49252918
0.526536609 0.706371279 0.49252918
0.428299574 0.769909514 0.49252918
0.322509854 0.819871074 0.49252918
0.211032958 0.855374933 0.49252918
0.095834682 0.875795009 0.49252918
-0.021053554 0.880771215 0.49252918
-0.13757053 0.870215797 0.49252918
-0.25166157 0.844314893 0.49252918
-0.361314781 0.803525241 0.49252918
-0.464596525 0.748566132 0.49252918
-0.55968552 0.680406719 0.49252918
-0.644904954 0.600248936 0.49252918
-0.71875206 0.509506292 0.49252918
-0.779924607 0.409778955 0.49252918
-0.827343873 0.302825527 0.49252918
-0.860173661 0.190532039 0.49252918
-0.877835045 0.074878687 0.49252918
-0.880016584 -0.042095084 0.49252918
-0.866679808 -0.158326546 0.49252918
-0.838059899 -0.27176606 0.49252918
-0.794661543 -0.380413218 0.49252918
-0.737250033 -0.482352126 0.49252918
-0.66683777 -0.57578518 0.49252918
-0.584666412 -0.659064771 0.49252918
-0.492184977 -0.730722336 0.49252918
-0.391024296 -0.789494259 0.49252918
-0.282968246 -0.834344147 0.49252918
-0.169922302 -0.864481114 0.49252918
-0.053879927 -0.879373719 0.49252918
0.063112572 -0.878759346 0.49252918
0.178992137 -0.862648827 0.49252918
0.291715334 -0.831326259 0.49252918
0.399294388 -0.785343986 0.49252918
0.499832239 -0.725512865 0.49252918
0.591555989 -0.652887966 0.49252918
0.672848172 -0.568749964 0.49252918
0.742275272 -0.474582559 0.49252918
0.798613003 -0.37204631 0.49252918
0.840867899 -0.262949352 0.49252918
0.868294832 -0.149215515 0.49252918
0.880410152 -0.032850394 0.49252918
0.926892184 0 0.447354323
0.919507524 0.116769149 0.447354323
0.897471213 0.231677671 0.447354323
0.861134382 0.342894586 0.447354323
0.811076031 0.448647737 0.447354323
0.748093803 0.547252029 0.447354323
0.67319127 0.637136277 0.447354323
0.587561947 0.716868244 0.447354323
0.492570273 0.785177462 0.447354323
0.389729867 0.840975476 0.447354323
0.280679413 0.883373187 0.447354323
0.167156547 0.91169502 0.447354323
0.050970168 0.925489688 0.447354323
-0.066028381 0.924537384 0.447354323
-0.181974818 0.908853281 0.447354323
-0.295021626 0.878687294 0.447354323
-0.403367489 0.834520096 0.447354323
-0.505285998 0.777055455 0.447354323
-0.599153161 0.707209029 0.447354323
-0.683473274 0.626093766 0.447354323
-0.756902762 0.535002177 0.447354323
-0.818271582 0.435385735 0.447354323
-0.866601868 0.328831754 0.447354323
-0.901123515 0.21703809 0.447354323
-0.921286445 0.101786089 0.447354323
-0.926769378 -0.015087795 0.447354323
-0.917484947 -0.131721267 0.447354323
-0.893581094 -0.246255861 0.447354323
-0.855438707 -0.356866556 0.447354323
-0.803665557 -0.461790854 0.447354323
-0.739086609 -0.559356867 0.447354323
-0.66273088 -0.648009955 0.447354323
-0.575815039 -0.726337499 0.447354323
-0.479724024 -0.793091408 0.447354323
-0.375988973 -0.84720801 0.447354323
-0.266262825 -0.887824999 0.447354323
-0.152293981 -0.914295173 0.447354323
-0.035898449 -0.926196751 0.447354323
0.081069097 -0.92334009 0.447354323
0.196744869 -0.905770709 0.447354323
0.309285662 -0.873768562 0.447354323
0.416898224 -0.827843579 0.447354323
0.51786783 -0.768727541 0.447354323
0.610585607 -0.697362415 0.447354323
0.693574168 -0.61488535 0.447354323
0.765511154 -0.522610557 0.447354323
0.825250303 -0.422008362 0.447354323
0.871839718 -0.314681787 0.447354323
0.904537032 -0.202340997 0.447354323
0.922821238 -0.086776057 0.447354323
0.968245837 0 0.4
0.961175788 0.116795137 0.4
0.940068893 0.231884617 0.4
0.905233393 0.343587694 0.4
0.85717802 0.450273075 0.4
0.796604565 0.550382746 0.4
0.724397634 0.642454721 0.4
0.641611723 0.725144397 0.4
0.549455825 0.797244189 0.4
0.449275768 0.857701162 0.4
0.342534565 0.905632415 0.4
0.230791045 0.940337968 0.4
0.115677093 0.961310985 0.4
-0.001126188 0.968245182 0.4
-0.117913022 0.961039291 0.4
-0.232977875 0.939798547 0.4
-0.344640359 0.904833147 0.4
-0.451269773 0.856653717 0.4
-0.551308922 0.795963864 0.4
-0.643296849 0.723649891 0.4
-0.725890179 0.640767858 0.4
-0.797882733 0.548528161 0.4
-0.858223145 0.448277853 0.4
-0.906030212 0.341480972 0.4
-0.94060577 0.229697162 0.4
-0.961444881 0.114558893 0.4
-0.968243217 -0.002252374 0.4
-0.960901494 -0.119030748 0.4
-0.93952693 -0.234070818 0.4
-0.904431676 -0.345692557 0.4
-0.856128256 -0.452265861 0.4
-0.795322086 -0.552234352 0.4
-0.722901168 -0.644138107 0.4
-0.639923126 -0.726634979 0.4
-0.547599755 -0.798520199 0.4
-0.447279332 -0.858743966 0.4
-0.340426918 -0.906426783 0.4
-0.228602967 -0.940872299 0.4
-0.113440538 -0.961577477 0.4
0.003378558 -0.968239942 0.4
0.120148313 -0.960762397 0.4
0.235163444 -0.939254042 0.4
0.346744287 -0.904028981 0.4
0.453261337 -0.855601637 0.4
0.553159035 -0.794679232 0.4
0.644978493 -0.722151468 0.4
0.727378796 -0.639077528 0.4
0.799156584 -0.546670609 0.4
0.859263626 -0.446280205 0.4
0.906822128 -0.339372402 0.4
0.941137556 -0.227508463 0.4
0.961708772 -0.112322029 0.4
1.004882293 0 0.350696917
0.998069413 0.116815533 0.350696917
0.977723154 0.232047099 0.350696917
0.944119402 0.344132209 0.350696917
0.897713808 0.451551039 0.350696917
0.839135613 0.552847036 0.350696917
0.76917911 0.646646673 0.350696917
0.688792878 0.731678066 0.350696917
0.599066921 0.806788229 0.350696917
0.50121788 0.870958701 0.350696917
0.396572548 0.923319358 0.350696917
0.286549867 0.963160213 0.350696917
0.172641696 0.989941042 0.350696917
0.056392581 1.003298709 0.350696917
-0.060621193 1.003052089 0.350696917
-0.17681297 0.989204527 0.350696917
-0.290607242 0.961943789 0.350696917
-0.400461008 0.921639519 0.350696917
-0.5048847 0.868838225 0.350696917
-0.602462379 0.80425587 0.350696917
-0.691870935 0.728768161 0.350696917
-0.771898027 0.643398678 0.350696917
-0.841458523 0.549304993 0.350696917
-0.899609214 0.447762977 0.350696917
-0.945561603 0.340149492 0.350696917
-0.978692595 0.227923731 0.350696917
-0.998552948 0.112607425 0.350696917
-1.004873365 -0.004235788 0.350696917
-0.997568144 -0.121021566 0.350696917
-0.976736341 -0.236166344 0.350696917
-0.942660425 -0.348108812 0.350696917
-0.895802451 -0.455331078 0.350696917
-0.836797792 -0.556379256 0.350696917
-0.766446526 -0.649883178 0.350696917
-0.685702584 -0.734574971 0.350696917
-0.595660818 -0.809306253 0.350696917
-0.497542155 -0.873063701 0.350696917
-0.392677041 -0.924982791 0.350696917
-0.2824874 -0.964359524 0.350696917
-0.168467355 -0.990659968 0.350696917
-0.052162967 -1.003527502 0.350696917
0.064848728 -1.002787647 0.350696917
0.180981102 -0.988450435 0.350696917
0.294659453 -0.960710273 0.350696917
0.404342353 -0.919943305 0.350696917
0.508542549 -0.866702312 0.350696917
0.605847133 -0.80170922 0.350696917
0.694936698 -0.725845306 0.350696917
0.774603229 -0.640139251 0.350696917
0.843766483 -0.545753191 0.350696917
0.901488637 -0.443966959 0.350696917
0.946987004 -0.336160731 0.350696917
0.979644646 -0.223796313 0.350696917
0.999018741 -0.108397316 0.350696917
1.036623063 0 0.299685275
1.030018339 0.116831485 0.299685275
1.01028833 0.232174214 0.299685275
0.97768445 0.3445584 0.299685275
0.932622163 0.452551959 0.299685275
0.875675688 0.554778752 0.299685275
0.80757068 0.649936129 0.299685275
0.729174986 0.736811519 0.299685275
0.641487584 0.814297891 0.299685275
0.545625854 0.881407853 0.299685275
0.442811339 0.937286239 0.299685275
0.334354182 0.981221003 0.299685275
0.221636428 1.012652294 0.299685275
0.106094411 1.031179592 0.299685275
-0.010799542 1.036566807 0.299685275
-0.127555879 1.028745291 0.299685275
-0.242686801 1.007814711 0.299685275
-0.354725221 0.974041782 0.299685275
-0.46224346 0.927856864 0.299685275
-0.563871437 0.86984848 0.299685275
-0.658314131 0.800755818 0.299685275
-0.74436808 0.72145931 0.299685275
-0.820936719 0.632969413 0.299685275
-0.887044352 0.536413734 0.299685275
-0.941848583 0.433022658 0.299685275
-0.984651056 0.324113674 0.299685275
-1.014906348 0.211074585 0.299685275
-1.032228923 0.095345822 0.299685275
-1.036398044 -0.021597912 0.299685275
-1.027360584 -0.138266428 0.299685275
-1.005231706 -0.253173047 0.299685275
-0.970293393 -0.36485354 0.299685275
-0.922990856 -0.47188479 0.299685275
-0.86392686 -0.57290292 0.299685275
-0.793854044 -0.666620681 0.299685275
-0.713665329 -0.751843849 0.299685275
-0.624382542 -0.827486445 0.299685275
-0.527143393 -0.892584572 0.299685275
-0.423186977 -0.946308701 0.299685275
-0.313837988 -0.987974237 0.299685275
-0.200489833 -1.017050246 0.299685275
-0.084586884 -1.033166218 0.299685275
0.032393937 -1.036116793 0.299685275
0.14896197 -1.025864371 0.299685275
0.263631814 -1.002539596 0.299685275
0.374942259 -0.966439692 0.299685275
0.481474902 -0.918024669 0.299685275
0.581872222 -0.857911471 0.299685275
0.674854878 -0.786866106 0.299685275
0.759238015 -0.705793888 0.299685275
0.833946357 -0.615727901 0.299685275
0.898027914 -0.517815837 0.299685275
0.950666109 -0.413305365 0.299685275
0.991190186 -0.303528238 0.299685275
1.019083755 -0.189883321 0.299685275
1.033991376 -0.073818765 0.299685275
1.06331351 0 0.247213595
1.056874234 0.116843809 0.247213595
1.037634394 0.23227244 0.247213595
1.005827019 0.344887851 0.247213595
0.96183735 0.453326079 0.247213595
0.906198178 0.556273748 0.247213595
0.83958339 0.652483987 0.247213595
0.762799803 0.740791524 0.247213595
0.676777401 0.820126802 0.247213595
0.582558061 0.889528935 0.247213595
0.481282943 0.948157345 0.247213595
0.37417866 0.99530194 0.247213595
0.262542432 1.030391718 0.247213595
0.147726363 1.053001682 0.247213595
0.031121074 1.062857987 0.247213595
-0.085861144 1.059841255 0.247213595
-0.201803437 1.043988024 0.247213595
-0.315301543 1.015490305 0.247213595
-0.424980805 0.974693253 0.247213595
-0.52951282 0.922090991 0.247213595
-0.627631525 0.858320622 0.247213595
-0.718148533 0.784154516 0.247213595
-0.799967529 0.700490952 0.247213595
-0.872097544 0.608343238 0.247213595
-0.933664958 0.508827443 0.247213595
-0.983924086 0.403148873 0.247213595
-1.022266203 0.292587477 0.247213595
-1.048226919 0.178482345 0.247213595
-1.061491806 0.062215484 0.247213595
-1.061900204 -0.054804913 0.247213595
-1.049447165 -0.171161528 0.247213595
-1.024283518 -0.285445083 0.247213595
-0.986714038 -0.396271408 0.247213595
-0.937193755 -0.502298205 0.247213595
-0.876322446 -0.602241308 0.247213595
-0.804837366 -0.694890233 0.247213595
-0.723604322 -0.779122844 0.247213595
-0.633607187 -0.853918939 0.247213595
-0.53593598 -0.918372608 0.247213595
-0.431773668 -0.971703206 0.247213595
-0.322381834 -1.01326481 0.247213595
-0.209085403 -1.042554035 0.247213595
-0.093256588 -1.05921614 0.247213595
0.023701725 -1.063049317 0.247213595
0.140372969 -1.05400714 0.247213595
0.255344055 -1.032199126 0.247213595
0.367222485 -0.997889407 0.247213595
0.474653221 -0.951493532 0.247213595
0.57633509 -0.893573436 0.247213595
0.671036551 -0.82483063 0.247213595
0.757610607 -0.746097708 0.247213595
0.835008696 -0.658328261 0.247213595
0.902293395 -0.562585327 0.247213595
0.958649771 -0.460028518 0.247213595
1.003395251 -0.351899974 0.247213595
1.03598789 -0.239509316 0.247213595
1.056032936 -0.124217789 0.247213595
1.063287609 -0.007421771 0.247213595
1.084823601 0 0.193537516
1.078511753 0.116853087 0.193537516
1.059649658 0.232346398 0.193537516
1.028456806 0.345135978 0.193537516
0.985296178 0.453909337 0.193537516
0.930670019 0.557400719 0.193537516
0.865213992 0.654405833 0.193537516
0.789689786 0.743795864 0.193537516
0.704976248 0.824530615 0.193537516
0.612059159 0.895670604 0.193537516
0.512019762 0.956388001 0.193537516
0.406022177 1.005976261 0.193537516
0.295299861 1.043858342 0.193537516
0.181141247 1.069593425 0.193537516
0.06487476 1.082882039 0.193537516
-0.052146652 1.083569551 0.193537516
-0.168561252 1.07164796 0.193537516
-0.283014366 1.047255993 0.193537516
-0.394174146 1.01067749 0.193537516
-0.500747065 0.962338102 0.193537516
-0.601492973 0.902800337 0.193537516
-0.695239527 0.832757015 0.193537516
-0.780895832 0.753023203 0.193537516
-0.857465138 0.664526735 0.193537516
-0.924056436 0.568297413 0.193537516
-0.979894826 0.46545502 0.193537516
-1.024330538 0.357196298 0.193537516
-1.056846489 0.244781013 0.193537516
-1.077064304 0.1295173 0.193537516
-1.084748715 0.012746442 0.193537516
-1.079810301 -0.104172741 0.193537516
-1.062306529 -0.219879705 0.193537516
-1.032441084 -0.333028008 0.193537516
-0.990561499 -0.442300987 0.193537516
-0.937155111 -0.54642707 0.193537516
-0.872843392 -0.644194581 0.193537516
-0.798374713 -0.734465835 0.193537516
-0.714615639 -0.816190378 0.193537516
-0.622540844 -0.888417212 0.193537516
-0.523221768 -0.95030586 0.193537516
-0.417814152 -1.001136145 0.193537516
-0.307544585 -1.040316574 0.193537516
-0.193696234 -1.067391219 0.193537516
-0.077593911 -1.082045022 0.193537516
0.039411345 -1.084107463 0.193537516
0.155957984 -1.073554541 0.193537516
0.270689798 -1.050509057 0.193537516
0.382271694 -1.015239183 0.193537516
0.489405233 -0.96815534 0.193537516
0.590843743 -0.909805428 0.193537516
0.685406819 -0.840868443 0.193537516
0.771994067 -0.762146578 0.193537516
0.849597901 -0.674555892 0.193537516
0.917315276 -0.579115645 0.193537516
0.974358187 -0.476936441 0.193537516
1.020062848 -0.369207302 0.193537516
1.05389741 -0.257181833 0.193537516
1.075468153 -0.142163632 0.193537516
1.084524065 -0.025491125 0.193537516
1.10104854 0 0.138918542
1.094829526 0.116859729 0.138918542
1.076242738 0.232399349 0.138918542
1.045498141 0.345313662 0.138918542
1.002943043 0.454327129 0.138918542
0.949058169 0.558208276 0.138918542
0.884452231 0.655783607 0.138918542
0.809855052 0.745950858 0.138918542
0.726109321 0.827691454 0.138918542
0.634161074 0.900082008 0.138918542
0.535049007 0.962304758 0.138918542
0.429892744 1.013656804 0.138918542
0.319880184 1.053558046 0.138918542
0.206254088 1.081557737 0.138918542
0.090298037 1.097339579 0.138918542
-0.026678069 1.100725292 0.138918542
-0.143352805 1.091676628 0.138918542
-0.258408152 1.070295807 0.138918542
-0.370544384 1.036824357 0.138918542
-0.47849475 0.99164039 0.138918542
-0.581039785 0.935254327 0.138918542
-0.677021087 0.868303136 0.138918542
-0.765354401 0.791543132 0.138918542
-0.845041865 0.705841437 0.138918542
-0.915183288 0.612166184 0.138918542
-0.974986316 0.511575577 0.138918542
-1.023775382 0.405205941 0.138918542
-1.060999339 0.294258884 0.138918542
-1.086237685 0.179987723 0.138918542
-1.099205314 0.063683325 0.138918542
-1.099755737 -0.053340474 0.138918542
-1.087882737 -0.16976171 0.138918542
-1.063720437 -0.284265228 0.138918542
-1.027541787 -0.395557535 0.138918542
-0.979755481 -0.502381415 0.138918542
-0.920901337 -0.603530128 0.138918542
-0.851644204 -0.697861045 0.138918542
-0.772766446 -0.784308554 0.138918542
-0.685159109 -0.861896098 0.138918542
-0.589811852 -0.929747206 0.138918542
-0.487801767 -0.987095397 0.138918542
-0.380281216 -1.033292836 0.138918542
-0.268464806 -1.067817651 0.138918542
-0.153615675 -1.090279832 0.138918542
-0.03703122 -1.100425634 0.138918542
0.079971559 -1.098140445 0.138918542
0.196070937 -1.08345008 0.138918542
0.309955393 -1.056520488 0.138918542
0.42033843 -1.017655881 0.138918542
0.5259731 -0.967295294 0.138918542
0.6256661 -0.906007626 0.138918542
0.718291244 -0.834485217 0.138918542
0.802802189 -0.753536019 0.138918542
0.878244256 -0.66407448 0.138918542
0.94376521 -0.567111204 0.138918542
0.998624891 -0.463741538 0.138918542
1.042203577 -0.355133203 0.138918542
1.074008979 -0.242513094 0.138918542
1.093681806 -0.12715343 0.138918542
1.100999824 -0.010357372 0.138918542
1.111909282 0 0.083622771
1.1057509 0.116864013 0.083622771
1.087343972 0.232433509 0.083622771
1.056892395 0.345428309 0.083622771
1.014733483 0.454596754 0.083622771
0.961334237 0.558729572 0.083622771
0.897286167 0.656673271 0.083622771
0.823298742 0.747342914 0.083622771
0.740191531 0.829734143 0.083622771
0.648885121 0.9029343 0.083622771
0.550390928 0.966132536 0.083622771
0.445799982 1.018628797 0.083622771
0.336270852 1.059841575 0.083622771
0.223016807 1.089314351 0.083622771
0.107292376 1.10672065 0.083622771
-0.009620547 1.111867661 0.083622771
-0.126426902 1.10469837 0.083622771
-0.24183281 1.085292192 0.083622771
-0.354559905 1.053864092 0.083622771
-0.463359493 1.010762203 0.083622771
-0.567026388 0.95646397 0.083622771
-0.664412259 0.891570861 0.083622771
-0.754438349 0.816801707 0.083622771
-0.836107427 0.732984734 0.083622771
-0.908514835 0.641048395 0.083622771
-0.970858507 0.542011079 0.083622771
-1.022447853 0.436969836 0.083622771
-1.062711412 0.327088222 0.083622771
-1.091203179 0.213583409 0.083622771
-1.107607547 0.097712705 0.083622771
-1.111742802 -0.019240375 0.083622771
-1.103563139 -0.135980327 0.083622771
-1.083159163 -0.251214007 0.083622771
-1.050756894 -0.363664957 0.083622771
-1.006715253 -0.472087544 0.083622771
-0.951522098 -0.575280755 0.083622771
-0.885788809 -0.672101507 0.083622771
-0.810243523 -0.761477304 0.083622771
-0.725723064 -0.842418118 0.083622771
-0.633163677 -0.914027357 0.083622771
-0.533590653 -0.975511796 0.083622771
-0.428106977 -1.026190366 0.083622771
-0.317881105 -1.065501691 0.083622771
-0.204134022 -1.093010316 0.083622771
-0.08812572 -1.108411525 0.083622771
0.028858762 -1.111534715 0.083622771
0.145523571 -1.102345291 0.083622771
0.260576397 -1.080945046 0.083622771
0.372742785 -1.047571032 0.083622771
0.480780252 -1.002592938 0.083622771
0.583492055 -0.946508992 0.083622771
0.67974044 -0.879940444 0.083622771
0.768459252 -0.803624681 0.083622771
0.848665742 -0.718407064 0.083622771
0.919471451 -0.625231558 0.083622771
0.980092056 -0.525130282 0.083622771
1.029856054 -0.419212069 0.083622771
1.068212203 -0.30865019 0.083622771
1.094735627 -0.194669352 0.083622771
1.109132523 -0.078532138 0.083622771
1.117352913 0 0.027919597
1.111224479 0.116866114 0.027919597
1.092906404 0.232450259 0.027919597
1.06259963 0.345484526 0.027919597
1.020636607 0.454728982 0.027919597
0.967477653 0.558985262 0.027919597
0.903705896 0.65710972 0.027919597
0.830020886 0.748025976 0.027919597
0.747230913 0.830736718 0.027919597
0.656244148 0.904334645 0.027919597
0.558058675 0.968012421 0.027919597
0.453751545 1.021071529 0.027919597
0.344466961 1.062929934 0.027919597
0.231403727 1.093128468 0.027919597
0.115802097 1.111335865 0.027919597
-0.001069832 1.1173524 0.027919597
-0.117930024 1.111112074 0.027919597
-0.233496577 1.092683339 0.027919597
-0.346501775 1.062268352 0.027919597
-0.455706002 1.02020075 0.027919597
-0.559911336 0.966941998 0.027919597
-0.65797469 0.903076319 0.027919597
-0.748820353 0.829304293 0.027919597
-0.831451788 0.746435165 0.027919597
-0.904962564 0.655377974 0.027919597
-0.968546301 0.557131576 0.027919597
-1.021505514 0.452773692 0.027919597
-1.063259263 0.34344908 0.027919597
-1.093349529 0.230356984 0.027919597
-1.111446233 0.114737973 0.027919597
-1.117350864 -0.002139662 0.027919597
-1.11099865 -0.118993827 0.027919597
-1.092459273 -0.234542681 0.027919597
-1.0619361 -0.347518706 0.027919597
-1.019763958 -0.456682605 0.027919597
-0.966405456 -0.560836897 0.027919597
-0.902445914 -0.658839057 0.027919597
-0.82858694 -0.749614044 0.027919597
-0.745638733 -0.832166096 0.027919597
-0.654511199 -0.905589654 0.027919597
-0.556203967 -0.969079294 0.027919597
-0.451795423 -1.021938563 0.027919597
-0.342430884 -1.063587618 0.027919597
-0.229310029 -1.093569587 0.027919597
-0.113673744 -1.111555582 0.027919597
0.003209491 -1.117348303 0.027919597
0.12005752 -1.110884208 0.027919597
0.23558857 -1.092234204 0.027919597
0.348535319 -1.061602874 0.027919597
0.457658789 -1.019326231 0.027919597
0.561761944 -0.965868029 0.027919597
0.65970282 -0.901814682 0.027919597
0.750407047 -0.827868827 0.027919597
0.832879641 -0.744841618 0.027919597
0.906215914 -0.653643825 0.027919597
0.969611398 -0.555275848 0.027919597
1.022370675 -0.450816741 0.027919597
1.063914998 -0.341412374 0.027919597
1.093788643 -0.228262864 0.027919597
1.111663911 -0.112609411 0.027919597
1.117352913 0 -0.027919597
1.111224479 0.116866114 -0.027919597
1.092906404 0.232450259 -0.027919597
1.06259963 0.345484526 -0.027919597
1.020636607 0.454728982 -0.027919597
0.967477653 0.558985262 -0.027919597
0.903705896 0.65710972 -0.027919597
0.830020886 0.748025976 -0.027919597
0.747230913 0.830736718 -0.027919597
0.656244148 0.904334645 -0.027919597
0.558058675 0.968012421 -0.027919597
0.453751545 1.021071529 -0.027919597
0.344466961 1.062929934 -0.027919597
0.231403727 1.093128468 -0.027919597
0.115802097 1.111335865 -0.027919597
-0.001069832 1.1173524 -0.027919597
-0.117930024 1.111112074 -0.027919597
-0.233496577 1.092683339 -0.027919597
-0.346501775 1.062268352 -0.027919597
-0.455706002 1.02020075 -0.027919597
-0.559911336 0.966941998 -0.027919597
-0.65797469 0.903076319 -0.027919597
-0.748820353 0.829304293 -0.027919597
-0.831451788 0.746435165 -0.027919597
-0.904962564 0.655377974 -0.027919597
-0.968546301 0.557131576 -0.027919597
-1.021505514 0.452773692 -0.027919597
-1.063259263 0.34344908 -0.027919597
-1.093349529 0.230356984 -0.027919597
-1.111446233 0.114737973 -0.027919597
-1.117350864 -0.002139662 -0.027919597
-1.11099865 -0.118993827 -0.027919597
-1.092459273 -0.234542681 -0.027919597
-1.0619361 -0.347518706 -0.027919597
-1.019763958 -0.456682605 -0.027919597
-0.966405456 -0.560836897 -0.027919597
-0.902445914 -0.658839057 -0.027919597
-0.82858694 -0.749614044 -0.027919597
-0.745638733 -0.832166096 -0.027919597
-0.654511199 -0.905589654 -0.027919597
-0.556203967 -0.969079294 -0.027919597
-0.451795423 -1.021938563 -0.027919597
-0.342430884 -1.063587618 -0.027919597
-0.229310029 -1.093569587 -0.027919597
-0.113673744 -1.111555582 -0.027919597
0.003209491 -1.117348303 -0.027919597
0.12005752 -1.110884208 -0.027919597
0.23558857 -1.092234204 -0.027919597
0.348535319 -1.061602874 -0.027919597
0.457658789 -1.019326231 -0.027919597
0.561761944 -0.965868029 -0.027919597
0.65970282 -0.901814682 -0.027919597
0.750407047 -0.827868827 -0.027919597
0.832879641 -0.744841618 -0.027919597
0.906215914 -0.653643825 -0.027919597
0.969611398 -0.555275848 -0.027919597
1.022370675 -0.450816741 -0.027919597
1.063914998 -0.341412374 -0.027919597
1.093788643 -0.228262864 -0.027919597
1.111663911 -0.112609411 -0.027919597
1.111909282 0 -0.083622771
1.1057509 0.116864013 -0.083622771
1.087343972 0.232433509 -0.083622771
1.056892395 0.345428309 -0.083622771
1.014733483 0.454596754 -0.083622771
0.961334237 0.558729572 -0.083622771
0.897286167 0.656673271 -0.083622771
0.823298742 0.747342914 -0.083622771
0.740191531 0.829734143 -0.083622771
0.648885121 0.9029343 -0.083622771
0.550390928 0.966132536 -0.083622771
0.445799982 1.018628797 -0.083622771
0.336270852 1.059841575 -0.083622771
0.223016807 1.089314351 -0.083622771
0.107292376 1.10672065 -0.083622771
-0.009620547 1.111867661 -0.083622771
-0.126426902 1.10469837 -0.083622771
-0.24183281 1.085292192 -0.083622771
-0.354559905 1.053864092 -0.083622771
-0.463359493 1.010762203 -0.083622771
-0.567026388 0.95646397 -0.083622771
-0.664412259 0.891570861 -0.083622771
-0.754438349 0.816801707 -0.083622771
-0.836107427 0.732984734 -0.083622771
-0.908514835 0.641048395 -0.083622771
-0.970858507 0.542011079 -0.083622771
-1.022447853 0.436969836 -0.083622771
-1.062711412 0.327088222 -0.083622771
-1.091203179 0.213583409 -0.083622771
-1.107607547 0.097712705 -0.083622771
-1.111742802 -0.019240375 -0.083622771
-1.103563139 -0.135980327 -0.083622771
-1.083159163 -0.251214007 -0.083622771
-1.050756894 -0.363664957 -0.083622771
-1.006715253 -0.472087544 -0.083622771
-0.951522098 -0.575280755 -0.083622771
-0.885788809 -0.672101507 -0.083622771
-0.810243523 -0.761477304 -0.083622771
-0.725723064 -0.842418118 -0.083622771
-0.633163677 -0.914027357 -0.083622771
-0.533590653 -0.975511796 -0.083622771
-0.428106977 -1.026190366 -0.083622771
-0.317881105 -1.065501691 -0.083622771
-0.204134022 -1.093010316 -0.083622771
-0.08812572 -1.108411525 -0.083622771
0.028858762 -1.111534715 -0.083622771
0.145523571 -1.102345291 -0.083622771
0.260576397 -1.080945046 -0.083622771
0.372742785 -1.047571032 -0.083622771
0.480780252 -1.002592938 -0.083622771
0.583492055 -0.946508992 -0.083622771
0.67974044 -0.879940444 -0.083622771
0.768459252 -0.803624681 -0.083622771
0.848665742 -0.718407064 -0.083622771
0.919471451 -0.625231558 -0.083622771
0.980092056 -0.525130282 -0.083622771
1.029856054 -0.419212069 -0.083622771
1.068212203 -0.30865019 -0.083622771
1.094735627 -0.194669352 -0.083622771
1.109132523 -0.078532138 -0.083622771
1.10104854 0 -0.138918542
1.094829526 0.116859729 -0.138918542
1.076242738 0.232399349 -0.138918542
1.045498141 0.345313662 -0.138918542
1.002943043 0.454327129 -0.138918542
0.949058169 0.558208276 -0.138918542
0.884452231 0.655783607 -0.138918542
0.809855052 0.745950858 -0.138918542
0.726109321 0.827691454 -0.138918542
0.634161074 0.900082008 -0.138918542
0.535049007 0.962304758 -0.138918542
0.429892744 1.013656804 -0.138918542
0.319880184 1.053558046 -0.138918542
0.206254088 1.081557737 -0.138918542
0.090298037 1.097339579 -0.138918542
-0.026678069 1.100725292 -0.138918542
-0.143352805 1.091676628 -0.138918542
-0.258408152 1.070295807 -0.138918542
-0.370544384 1.036824357 -0.138918542
-0.47849475 0.99164039 -0.138918542
-0.581039785 0.935254327 -0.138918542
-0.677021087 0.868303136 -0.138918542
-0.765354401 0.791543132 -0.138918542
-0.845041865 0.705841437 -0.138918542
-0.915183288 0.612166184 -0.138918542
-0.974986316 0.511575577 -0.138918542
-1.023775382 0.405205941 -0.138918542
-1.060999339 0.294258884 -0.138918542
-1.086237685 0.179987723 -0.138918542
-1.099205314 0.063683325 -0.138918542
-1.099755737 -0.053340474 -0.138918542
-1.087882737 -0.16976171 -0.138918542
-1.063720437 -0.284265228 -0.138918542
-1.027541787 -0.395557535 -0.138918542
-0.979755481 -0.502381415 -0.138918542
-0.920901337 -0.603530128 -0.138918542
-0.851644204 -0.697861045 -0.138918542
-0.772766446 -0.784308554 -0.138918542
-0.685159109 -0.861896098 -0.138918542
-0.589811852 -0.929747206 -0.138918542
-0.487801767 -0.987095397 -0.138918542
-0.380281216 -1.033292836 -0.138918542
-0.268464806 -1.067817651 -0.138918542
-0.153615675 -1.090279832 -0.138918542
-0.03703122 -1.100425634 -0.138918542
0.079971559 -1.098140445 -0.138918542
0.196070937 -1.08345008 -0.138918542
0.309955393 -1.056520488 -0.138918542
0.42033843 -1.017655881 -0.138918542
0.5259731 -0.967295294 -0.138918542
0.6256661 -0.906007626 -0.138918542
0.718291244 -0.834485217 -0.138918542
0.802802189 -0.753536019 -0.138918542
0.878244256 -0.66407448 -0.138918542
0.94376521 -0.567111204 -0.138918542
0.998624891 -0.463741538 -0.138918542
1.042203577 -0.355133203 -0.138918542
1.074008979 -0.242513094 -0.138918542
1.093681806 -0.12715343 -0.138918542
1.100999824 -0.010357372 -0.138918542
1.084823601 0 -0.193537516
1.078511753 0.116853087 -0.193537516
1.059649658 0.232346398 -0.193537516
1.028456806 0.345135978 -0.193537516
0.985296178 0.453909337 -0.193537516
0.930670019 0.557400719 -0.193537516
0.865213992 0.654405833 -0.193537516
0.789689786 0.743795864 -0.193537516
0.704976248 0.824530615 -0.193537516
0.612059159 0.895670604 -0.193537516
0.512019762 0.956388001 -0.193537516
0.406022177 1.005976261 -0.193537516
0.295299861 1.043858342 -0.193537516
0.181141247 1.069593425 -0.193537516
0.06487476 1.082882039 -0.193537516
-0.052146652 1.083569551 -0.193537516
-0.168561252 1.07164796 -0.193537516
-0.283014366 1.047255993 -0.193537516
-0.394174146 1.01067749 -0.193537516
-0.500747065 0.962338102 -0.193537516
-0.601492973 0.902800337 -0.193537516
-0.695239527 0.832757015 -0.193537516
-0.780895832 0.753023203 -0.193537516
-0.857465138 0.664526735 -0.193537516
-0.924056436 0.568297413 -0.193537516
-0.979894826 0.46545502 -0.193537516
-1.024330538 0.357196298 -0.193537516
-1.056846489 0.244781013 -0.193537516
-1.077064304 0.1295173 -0.193537516
-1.084748715 0.012746442 -0.193537516
-1.079810301 -0.104172741 -0.193537516
-1.062306529 -0.219879705 -0.193537516
-1.032441084 -0.333028008 -0.193537516
-0.990561499 -0.442300987 -0.193537516
-0.937155111 -0.54642707 -0.193537516
-0.872843392 -0.644194581 -0.193537516
-0.798374713 -0.734465835 -0.193537516
-0.714615639 -0.816190378 -0.193537516
-0.622540844 -0.888417212 -0.193537516
-0.523221768 -0.95030586 -0.193537516
-0.417814152 -1.001136145 -0.193537516
-0.307544585 -1.040316574 -0.193537516
-0.193696234 -1.067391219 -0.193537516
-0.077593911 -1.082045022 -0.193537516
0.039411345 -1.084107463 -0.193537516
0.155957984 -1.073554541 -0.193537516
0.270689798 -1.050509057 -0.193537516
0.382271694 -1.015239183 -0.193537516
0.489405233 -0.96815534 -0.193537516
0.590843743 -0.909805428 -0.193537516
0.685406819 -0.840868443 -0.193537516
0.771994067 -0.762146578 -0.193537516
0.849597901 -0.674555892 -0.193537516
0.917315276 -0.579115645 -0.193537516
0.974358187 -0.476936441 -0.193537516
1.020062848 -0.369207302 -0.193537516
1.05389741 -0.257181833 -0.193537516
1.075468153 -0.142163632 -0.193537516
1.084524065 -0.025491125 -0.193537516
1.06331351 0 -0.247213595
1.056874234 0.116843809 -0.247213595
1.037634394 0.23227244 -0.247213595
1.005827019 0.344887851 -0.247213595
0.96183735 0.453326079 -0.247213595
0.906198178 0.556273748 -0.247213595
0.83958339 0.652483987 -0.247213595
0.762799803 0.740791524 -0.247213595
0.676777401 0.820126802 -0.247213595
0.582558061 0.889528935 -0.247213595
0.481282943 0.948157345 -0.247213595
0.37417866 0.99530194 -0.247213595
0.262542432 1.030391718 -0.247213595
0.147726363 1.053001682 -0.247213595
0.031121074 1.062857987 -0.247213595
-0.085861144 1.059841255 -0.247213595
-0.201803437 1.043988024 -0.247213595
-0.315301543 1.015490305 -0.247213595
-0.424980805 0.974693253 -0.247213595
-0.52951282 0.922090991 -0.247213595
-0.627631525 0.858320622 -0.247213595
-0.718148533 0.784154516 -0.247213595
-0.799967529 0.700490952 -0.247213595
-0.872097544 0.608343238 -0.247213595
-0.933664958 0.508827443 -0.247213595
-0.983924086 0.403148873 -0.247213595
-1.022266203 0.292587477 -0.247213595
-1.048226919 0.178482345 -0.247213595
-1.061491806 0.062215484 -0.247213595
-1.061900204 -0.054804913 -0.247213595
-1.049447165 -0.171161528 -0.247213595
-1.024283518 -0.285445083 -0.247213595
-0.986714038 -0.396271408 -0.247213595
-0.937193755 -0.502298205 -0.247213595
-0.876322446 -0.602241308 -0.247213595
-0.804837366 -0.694890233 -0.247213595
-0.723604322 -0.779122844 -0.247213595
-0.633607187 -0.853918939 -0.247213595
-0.53593598 -0.918372608 -0.247213595
-0.431773668 -0.971703206 -0.247213595
-0.322381834 -1.01326481 -0.247213595
-0.209085403 -1.042554035 -0.247213595
-0.093256588 -1.05921614 -0.247213595
0.023701725 -1.063049317 -0.247213595
0.140372969 -1.05400714 -0.247213595
0.255344055 -1.032199126 -0.247213595
0.367222485 -0.997889407 -0.247213595
0.474653221 -0.951493532 -0.247213595
0.57633509 -0.893573436 -0.247213595
0.671036551 -0.82483063 -0.247213595
0.757610607 -0.746097708 -0.247213595
0.835008696 -0.658328261 -0.247213595
0.902293395 -0.562585327 -0.247213595
0.958649771 -0.460028518 -0.247213595
1.003395251 -0.351899974 -0.247213595
1.03598789 -0.239509316 -0.247213595
1.056032936 -0.124217789 -0.247213595
1.063287609 -0.007421771 -0.247213595
1.036623063 0 -0.299685275
1.030018339 0.116831485 -0.299685275
1.01028833 0.232174214 -0.299685275
0.97768445 0.3445584 -0.299685275
0.932622163 0.452551959 -0.299685275
0.875675688 0.554778752 -0.299685275
0.80757068 0.649936129 -0.299685275
0.729174986 0.736811519 -0.299685275
0.641487584 0.814297891 -0.299685275
0.545625854 0.881407853 -0.299685275
0.442811339 0.937286239 -0.299685275
0.334354182 0.981221003 -0.299685275
0.221636428 1.012652294 -0.299685275
0.106094411 1.031179592 -0.299685275
-0.010799542 1.036566807 -0.299685275
-0.127555879 1.028745291 -0.299685275
-0.242686801 1.007814711 -0.299685275
-0.354725221 0.974041782 -0.299685275
-0.46224346 0.927856864 -0.299685275
-0.563871437 0.86984848 -0.299685275
-0.658314131 0.800755818 -0.299685275
-0.74436808 0.72145931 -0.299685275
-0.820936719 0.632969413 -0.299685275
-0.887044352 0.536413734 -0.299685275
-0.941848583 0.433022658 -0.299685275
-0.984651056 0.324113674 -0.299685275
-1.014906348 0.211074585 -0.299685275
-1.032228923 0.095345822 -0.299685275
-1.036398044 -0.021597912 -0.299685275
-1.027360584 -0.138266428 -0.299685275
-1.005231706 -0.253173047 -0.299685275
-0.970293393 -0.36485354 -0.299685275
-0.922990856 -0.47188479 -0.299685275
-0.86392686 -0.57290292 -0.299685275
-0.793854044 -0.666620681 -0.299685275
-0.713665329 -0.751843849 -0.299685275
-0.624382542 -0.827486445 -0.299685275
-0.527143393 -0.892584572 -0.299685275
-0.423186977 -0.946308701 -0.299685275
-0.313837988 -0.987974237 -0.299685275
-0.200489833 -1.017050246 -0.299685275
-0.084586884 -1.033166218 -0.299685275
0.032393937 -1.036116793 -0.299685275
0.14896197 -1.025864371 -0.299685275
0.263631814 -1.002539596 -0.299685275
0.374942259 -0.966439692 -0.299685275
0.481474902 -0.918024669 -0.299685275
0.581872222 -0.857911471 -0.299685275
0.674854878 -0.786866106 -0.299685275
0.759238015 -0.705793888 -0.299685275
0.833946357 -0.615727901 -0.299685275
0.898027914 -0.517815837 -0.299685275
0.950666109 -0.413305365 -0.299685275
0.991190186 -0.303528238 -0.299685275
1.019083755 -0.189883321 -0.299685275
1.033991376 -0.073818765 -0.299685275
1.004882293 0 -0.350696917
0.998069413 0.116815533 -0.350696917
0.977723154 0.232047099 -0.350696917
0.944119402 0.344132209 -0.350696917
0.897713808 0.451551039 -0.350696917
0.839135613 0.552847036 -0.350696917
0.76917911 0.646646673 -0.350696917
0.688792878 0.731678066 -0.350696917
0.599066921 0.806788229 -0.350696917
0.50121788 0.870958701 -0.350696917
0.396572548 0.923319358 -0.350696917
0.286549867 0.963160213 -0.350696917
0.172641696 0.989941042 -0.350696917
0.056392581 1.003298709 -0.350696917
-0.060621193 1.003052089 -0.350696917
-0.17681297 0.989204527 -0.350696917
-0.290607242 0.961943789 -0.350696917
-0.400461008 0.921639519 -0.350696917
-0.5048847 0.868838225 -0.350696917
-0.602462379 0.80425587 -0.350696917
-0.691870935 0.728768161 -0.350696917
-0.771898027 0.643398678 -0.350696917
-0.841458523 0.549304993 -0.350696917
-0.899609214 0.447762977 -0.350696917
-0.945561603 0.340149492 -0.350696917
-0.978692595 0.227923731 -0.350696917
-0.998552948 0.112607425 -0.350696917
-1.004873365 -0.004235788 -0.350696917
-0.997568144 -0.121021566 -0.350696917
-0.976736341 -0.236166344 -0.350696917
-0.942660425 -0.348108812 -0.350696917
-0.895802451 -0.455331078 -0.350696917
-0.836797792 -0.556379256 -0.350696917
-0.766446526 -0.649883178 -0.350696917
-0.685702584 -0.734574971 -0.350696917
-0.595660818 -0.809306253 -0.350696917
-0.497542155 -0.873063701 -0.350696917
-0.392677041 -0.924982791 -0.350696917
-0.2824874 -0.964359524 -0.350696917
-0.168467355 -0.990659968 -0.350696917
-0.052162967 -1.003527502 -0.350696917
0.064848728 -1.002787647 -0.350696917
0.180981102 -0.988450435 -0.350696917
0.294659453 -0.960710273 -0.350696917
0.404342353 -0.919943305 -0.350696917
0.508542549 -0.866702312 -0.350696917
0.605847133 -0.80170922 -0.350696917
0.694936698 -0.725845306 -0.350696917
0.774603229 -0.640139251 -0.350696917
0.843766483 -0.545753191 -0.350696917
0.901488637 -0.443966959 -0.350696917
0.946987004 -0.336160731 -0.350696917
0.979644646 -0.223796313 -0.350696917
0.999018741 -0.108397316 -0.350696917
0.968245837 0 -0.4
0.961175788 0.116795137 -0.4
0.940068893 0.231884617 -0.4
0.905233393 0.343587694 -0.4
0.85717802 0.450273075 -0.4
0.796604565 0.550382746 -0.4
0.724397634 0.642454721 -0.4
0.641611723 0.725144397 -0.4
0.549455825 0.797244189 -0.4
0.449275768 0.857701162 -0.4
0.342534565 0.905632415 -0.4
0.230791045 0.940337968 -0.4
0.115677093 0.961310985 -0.4
-0.001126188 0.968245182 -0.4
-0.117913022 0.961039291 -0.4
-0.232977875 0.939798547 -0.4
-0.344640359 0.904833147 -0.4
-0.451269773 0.856653717 -0.4
-0.551308922 0.795963864 -0.4
-0.643296849 0.723649891 -0.4
-0.725890179 0.640767858 -0.4
-0.797882733 0.548528161 -0.4
-0.858223145 0.448277853 -0.4
-0.906030212 0.341480972 -0.4
-0.94060577 0.229697162 -0.4
-0.961444881 0.114558893 -0.4
-0.968243217 -0.002252374 -0.4
-0.960901494 -0.119030748 -0.4
-0.93952693 -0.234070818 -0.4
-0.904431676 -0.345692557 -0.4
-0.856128256 -0.452265861 -0.4
-0.795322086 -0.552234352 -0.4
-0.722901168 -0.644138107 -0.4
-0.639923126 -0.726634979 -0.4
-0.547599755 -0.798520199 -0.4
-0.447279332 -0.858743966 -0.4
-0.340426918 -0.906426783 -0.4
-0.228602967 -0.940872299 -0.4
-0.113440538 -0.961577477 -0.4
0.003378558 -0.968239942 -0.4
0.120148313 -0.960762397 -0.4
0.235163444 -0.939254042 -0.4
0.346744287 -0.904028981 -0.4
0.453261337 -0.855601637 -0.4
0.553159035 -0.794679232 -0.4
0.644978493 -0.722151468 -0.4
0.727378796 -0.639077528 -0.4
0.799156584 -0.546670609 -0.4
0.859263626 -0.446280205 -0.4
0.906822128 -0.339372402 -0.4
0.941137556 -0.227508463 -0.4
0.961708772 -0.112322029 -0.4
0.926892184 0 -0.447354323
0.919507524 0.116769149 -0.447354323
0.897471213 0.231677671 -0.447354323
0.861134382 0.342894586 -0.447354323
