# .PCD v.5 - Point Cloud Data file format
VERSION .5
FIELDS x y z
SIZE 4 4 4
TYPE F F F
COUNT 1 1 1
WIDTH 1304
HEIGHT 1
POINTS 1304
DATA ascii
0.300051165 -0.847680017 0.475313968
0.404450685 -0.80312624 0.475313968
0.502405591 -0.745775258 0.475313968
0.592355047 -0.676540916 0.475313968
0.672865778 -0.596526411 0.475313968
0.742654905 -0.507006712 0.475313968
0.800610392 -0.409408248 0.475313968
0.845808764 -0.305286175 0.475313968
0.877529818 -0.1962996 0.475313968
0.895268103 -0.084185141 0.475313968
0.939336437 0 0.425
0.932477482 0.113307926 0.425
0.912000787 0.224961122 0.425
0.878205387 0.333329025 0.425
0.831584827 0.436829047 0.425
0.772819944 0.533949693 0.425
0.702768932 0.623272629 0.425
0.622454801 0.703493398 0.425
0.533050448 0.77344047 0.425
0.435861517 0.83209235 0.425
0.332307339 0.878592496 0.425
0.223900202 0.912261827 0.425
0.112223264 0.932608643 0.425
-0.001092563 0.939335801 0.425
-0.114392434 0.932345061 0.425
-0.226021738 0.911738512 0.425
-0.334350259 0.877817091 0.425
-0.437795986 0.831076179 0.425
-0.534848216 0.772198373 0.425
-0.624089613 0.702043514 0.425
-0.704216913 0.621636132 0.425
-0.77405995 0.532150482 0.425
-0.832598747 0.434893397 0.425
-0.878978415 0.331285204 0.425
-0.912521633 0.222838979 0.425
-0.932738541 0.111138451 0.425
-0.939333895 -0.002185124 0.425
-0.932211378 -0.115476788 0.425
-0.911475005 -0.227082048 0.425
-0.877427607 -0.335371041 0.425
-0.830566407 -0.438762333 0.425
-0.771575757 -0.535746015 0.425
-0.701317147 -0.624905753 0.425
-0.620816621 -0.704939475 0.425
-0.531249796 -0.774678382 0.425
-0.433924689 -0.833104018 0.425
-0.330262621 -0.879363146 0.425
-0.221777454 -0.912780205 0.425
-0.110053487 -0.932867178 0.425
0.003277683 -0.939330718 0.425
0.116560985 -0.932076434 0.425
0.228142051 -0.911210264 0.425
0.33639137 -0.877036936 0.425
0.439728086 -0.830055511 0.425
0.536643089 -0.770952097 0.425
0.625721048 -0.700589831 0.425
0.705661084 -0.619996271 0.425
0.775295766 -0.530348391 0.425
0.833608162 -0.432955394 0.425
0.879746687 -0.329239591 0.425
0.913037542 -0.220715629 0.425
0.932994552 -0.108968374 0.425
0.97487902 0 0.372615475
0.968269556 0.113327713 0.372615475
0.948530785 0.225118753 0.372615475
0.915930357 0.333857282 0.372615475
0.870910318 0.438068854 0.372615475
0.814081121 0.536340406 0.372615475
0.746213345 0.62733942 0.372615475
0.668227245 0.709831989 0.372615475
0.58118028 0.78269955 0.372615475
0.486252768 0.844954051 0.372615475
0.384731883 0.89575135 0.372615475
0.277994204 0.934402657 0.372615475
0.167487047 0.960383878 0.372615475
0.054708839 0.973342718 0.372615475
-0.058811196 0.973103461 0.372615475
-0.171533777 0.959669353 0.372615475
-0.281930436 0.933222552 0.372615475
-0.388504243 0.894121667 0.372615475
-0.489810105 0.842896888 0.372615475
-0.584474358 0.7802428 0.372615475
-0.671213398 0.707008965 0.372615475
-0.748851081 0.624188402 0.372615475
-0.816334675 0.53290412 0.372615475
-0.872749133 0.434393894 0.372615475
-0.917329498 0.329993479 0.372615475
-0.949471281 0.221118498 0.372615475
-0.968738653 0.109245249 0.372615475
-0.974870359 -0.004109318 0.372615475
-0.967783254 -0.117408164 0.372615475
-0.947573436 -0.229115008 0.372615475
-0.914514942 -0.337715153 0.372615475
-0.86905603 -0.44173603 0.372615475
-0.811813102 -0.539767163 0.372615475
-0.743562349 -0.630479291 0.372615475
-0.665229219 -0.712642399 0.372615475
-0.577875875 -0.785142392 0.372615475
-0.48268679 -0.846996202 0.372615475
-0.380952686 -0.897365117 0.372615475
-0.274053033 -0.935566159 0.372615475
-0.163437341 -0.961081338 0.372615475
-0.050605511 -0.97356468 0.372615475
0.062912507 -0.972846915 0.372615475
0.175577459 -0.958937776 0.372615475
0.285861659 -0.932025866 0.372615475
0.392269701 -0.892476098 0.372615475
0.493358739 -0.840824748 0.372615475
0.587758052 -0.777772187 0.372615475
0.674187625 -0.70417338 0.372615475
0.751475513 -0.621026293 0.372615475
0.818573725 -0.529458365 0.372615475
0.87457244 -0.430711215 0.372615475
0.918712339 -0.326123812 0.372615475
0.950394906 -0.217114315 0.372615475
0.969190539 -0.105160843 0.372615475
1.00567209 0 0.318415604
0.999264567 0.113343189 0.318415604
0.980123646 0.225242072 0.318415604
0.948493237 0.334270748 0.318415604
0.904776397 0.439039889 0.318415604
0.849530202 0.538214446 0.318415604
0.783458639 0.630530661 0.318415604
0.707403644 0.714812169 0.318415604
0.622334368 0.789984992 0.318415604
0.52933483 0.855091218 0.318415604
0.4295901 0.909301215 0.318415604
0.324371202 0.951924197 0.318415604
0.215018918 0.982417029 0.318415604
0.102926697 1.000391148 0.318415604
-0.010477095 1.005617514 0.318415604
-0.123747379 0.998029528 0.318415604
-0.23544078 0.977723884 0.318415604
-0.344134013 0.94495933 0.318415604
-0.448442026 0.900153377 0.318415604
-0.547035646 0.843876979 0.318415604
-0.638658517 0.776847251 0.318415604
-0.72214311 0.699918339 0.318415604
-0.796425601 0.614070529 0.318415604
-0.860559425 0.520397761 0.318415604
-0.913727339 0.420093684 0.318415604
-0.955251837 0.31443645 0.318415604
-0.984603782 0.204772426 0.318415604
-1.001409148 0.092499034 0.318415604
-1.005453789 -0.020953052 0.318415604
-0.996686166 -0.134138138 0.318415604
-0.975218001 -0.245613933 0.318415604
-0.941322859 -0.353959926 0.318415604
-0.895432657 -0.45779549 0.318415604
-0.838132164 -0.555797471 0.318415604
-0.770151547 -0.646717054 0.318415604
-0.692357066 -0.729395672 0.318415604
-0.60574004 -0.802779769 0.318415604
-0.511404209 -0.865934229 0.318415604
-0.410551672 -0.918054289 0.318415604
-0.30446757 -0.958475796 0.318415604
-0.194503708 -0.986683668 0.318415604
-0.082061331 -1.002318458 0.318415604
0.031426735 -1.005180936 0.318415604
0.144514338 -0.995234625 0.318415604
0.255760427 -0.97260627 0.318415604
0.363747421 -0.937584219 0.318415604
0.467099265 -0.890614748 0.318415604
0.564498972 -0.83229638 0.318415604
0.654705399 -0.763372251 0.318415604
0.736569066 -0.684720647 0.318415604
0.809046804 -0.597343806 0.318415604
0.871215046 -0.50235515 0.318415604
0.922281596 -0.4009651 0.318415604
0.961595725 -0.294465643 0.318415604
0.988656462 -0.18421388 0.318415604
1.003118978 -0.071614721 0.318415604
1.031565627 0 0.262664445
1.025318611 0.113355145 0.262664445
1.006653225 0.225337365 0.262664445
0.975795539 0.334590362 0.262664445
0.933119291 0.439790895 0.262664445
0.879141366 0.539664805 0.262664445
0.814515529 0.633002447 0.262664445
0.740024508 0.718673341 0.262664445
0.65657052 0.795639866 0.262664445
0.565164334 0.862969825 0.262664445
0.466913037 0.919847737 0.262664445
0.363006621 0.965584712 0.262664445
0.254703571 0.999626798 0.262664445
0.143315623 1.021561685 0.262664445
0.030191877 1.031123705 0.262664445
-0.083297545 1.028197045 0.262664445
-0.19577809 1.012817152 0.262664445
-0.305887427 0.985170303 0.262664445
-0.412291941 0.945591349 0.262664445
-0.513702891 0.894559659 0.262664445
-0.608892017 0.832693314 0.262664445
-0.696706414 0.760741623 0.262664445
-0.776082499 0.679576043 0.262664445
-0.846058891 0.59017963 0.262664445
-0.905788057 0.493635128 0.262664445
-0.954546573 0.391111856 0.262664445
-0.99174389 0.283851547 0.262664445
-1.016929484 0.173153308 0.262664445
-1.029798315 0.060357885 0.262664445
-1.030194519 -0.053168575 0.262664445
-1.018113297 -0.166051073 0.262664445
-0.993700973 -0.276922407 0.262664445
-0.957253224 -0.384439734 0.262664445
-0.909211493 -0.487300836 0.262664445
-0.850157648 -0.584259888 0.262664445
-0.780806934 -0.674142548 0.262664445
-0.701999306 -0.755860184 0.262664445
-0.61468926 -0.828423054 0.262664445
-0.519934272 -0.890952298 0.262664445
-0.418881985 -0.942690578 0.262664445
-0.312756319 -0.983011256 0.262664445
-0.202842635 -1.011425978 0.262664445
-0.090472179 -1.027590594 0.262664445
0.022994051 -1.031309322 0.262664445
0.136181783 -1.022537122 0.262664445
0.24772012 -1.001380241 0.262664445
0.35625814 -0.968094924 0.262664445
0.460481262 -0.923084314 0.262664445
0.559127165 -0.866893567 0.262664445
0.651001078 -0.80020325 0.262664445
0.734990248 -0.723821096 0.262664445
0.810077424 -0.638672225 0.262664445
0.87535317 -0.545787936 0.262664445
0.930026886 -0.446293217 0.262664445
0.973436377 -0.341393121 0.262664445
1.005055882 -0.232358167 0.262664445
1.024502433 -0.120508956 0.262664445
1.031540499 -0.007200175 0.262664445
1.052433481 0 0.205633611
1.046310089 0.113364146 0.205633611
1.028011168 0.225409115 0.205633611
0.997749657 0.334831081 0.205633611
0.955877698 0.440356739 0.205633611
0.902882539 0.540758127 0.205633611
0.839380865 0.634866911 0.205633611
0.766111623 0.721587979 0.205633611
0.68392742 0.799912192 0.205633611
0.593784603 0.868928119 0.205633611
0.496732132 0.927832647 0.205633611
0.39389937 0.975940325 0.205633611
0.286482945 1.012691342 0.205633611
0.175732823 1.037658039 0.205633611
0.062937762 1.050549889 0.205633611
-0.050589683 1.051216873 0.205633611
-0.163528434 1.039651231 0.205633611
-0.274564265 1.015987547 0.205633611
-0.382405091 0.980501187 0.205633611
-0.485796009 0.933605092 0.205633611
-0.583533896 0.875844977 0.205633611
-0.674481413 0.807892972 0.205633611
-0.757580235 0.730539813 0.205633611
-0.831863373 0.644685628 0.205633611
-0.896466421 0.551329473 0.205633611
-0.950637616 0.451557697 0.205633611
-0.993746589 0.34653131 0.205633611
-1.025291695 0.237472464 0.205633611
-1.044905856 0.125650238 0.205633611
-1.05236083 0.012365865 0.205633611
-1.047569865 -0.101062404 0.205633611
-1.030588712 -0.213314647 0.205633611
-1.001614974 -0.323084625 0.205633611
-0.960985809 -0.429094985 0.205633611
-0.909174003 -0.530112124 0.205633611
-0.846782471 -0.624960542 0.205633611
-0.77453724 -0.712536522 0.205633611
-0.693279003 -0.791820974 0.205633611
-0.603953331 -0.861891296 0.205633611
-0.507599674 -0.921932102 0.205633611
-0.405339266 -0.971244722 0.205633611
-0.298362073 -1.009255322 0.205633611
-0.187912949 -1.035521586 0.205633611
-0.075277151 -1.049737863 0.205633611
0.03823462 -1.051738725 0.205633611
0.151301469 -1.041500887 0.205633611
0.262607678 -1.019143483 0.205633611
0.370858017 -0.984926679 0.205633611
0.474792816 -0.939248643 0.205633611
0.573202626 -0.882640913 0.205633611
0.664942285 -0.815762213 0.205633611
0.748944254 -0.739390787 0.205633611
0.824231032 -0.65441534 0.205633611
0.889926535 -0.5618247 0.205633611
0.945266287 -0.462696312 0.205633611
0.989606321 -0.358183695 0.205633611
1.022430668 -0.249503026 0.205633611
1.043357362 -0.137918981 0.205633611
1.052142888 -0.024730024 0.205633611
1.068173984 0 0.147600951
1.062140654 0.11337059 0.147600951
1.04410882 0.225460485 0.147600951
1.01428218 0.335003459 0.147600951
0.972997671 0.440762057 0.147600951
0.920721665 0.541541573 0.147600951
0.858044699 0.636203548 0.147600951
0.785674805 0.723678631 0.147600951
0.704429512 0.802978656 0.147600951
0.61522661 0.873207809 0.147600951
0.519073782 0.933572744 0.147600951
0.417057221 0.983391546 0.147600951
0.310329362 1.022101437 0.147600951
0.200095857 1.049265127 0.147600951
0.087601963 1.064575763 0.147600951
-0.025881529 1.067860387 0.147600951
-0.139072649 1.059081894 0.147600951
-0.250692731 1.03833945 0.147600951
-0.359480855 1.005867374 0.147600951
-0.464208093 0.962032487 0.147600951
-0.56369139 0.907329971 0.147600951
-0.65680693 0.842377775 0.147600951
-0.742502832 0.767909633 0.147600951
-0.819811027 0.684766777 0.147600951
-0.887858203 0.593888432 0.147600951
-0.945875663 0.496301209 0.147600951
-0.993208009 0.393107505 0.147600951
-1.029320551 0.285473049 0.147600951
-1.053805343 0.174613739 0.147600951
-1.066385791 0.0617819 0.147600951
-1.066919781 -0.051747861 0.147600951
-1.055401278 -0.16469305 0.147600951
-1.031960404 -0.275777779 0.147600951
-0.996861958 -0.383747176 0.147600951
-0.950502431 -0.487381562 0.147600951
-0.893405525 -0.585510228 0.147600951
-0.826216237 -0.677024659 0.147600951
-0.749693572 -0.760891061 0.147600951
-0.664701971 -0.836162035 0.147600951
-0.572201545 -0.901987279 0.147600951
-0.473237226 -0.957623197 0.147600951
-0.368926969 -1.002441295 0.147600951
-0.260449118 -1.035935286 0.147600951
-0.149029095 -1.057726802 0.147600951
-0.035925561 -1.067569676 0.147600951
0.077583808 -1.065352717 0.147600951
0.190216749 -1.051100969 0.147600951
0.3007009 -1.024975428 0.147600951
0.407788175 -0.987271221 0.147600951
0.510268859 -0.938414275 0.147600951
0.606985275 -0.878956504 0.147600951
0.696844863 -0.809569574 0.147600951
0.778832523 -0.731037318 0.147600951
0.852022078 -0.644246876 0.147600951
0.91558674 -0.550178681 0.147600951
0.968808449 -0.449895375 0.147600951
1.011085984 -0.344529813 0.147600951
1.041941756 -0.23527226 0.147600951
1.061027202 -0.123356946 0.147600951
1.068126722 -0.010048127 0.147600951
1.07871045 0 0.088849194
1.072735943 0.113374746 0.088849194
1.0548786 0.225493626 0.088849194
1.02533623 0.335114683 0.088849194
0.984436078 0.441023631 0.088849194
0.9326312 0.542047304 0.088849194
0.870495446 0.637066648 0.088849194
0.7987171 0.725029123 0.088849194
0.718091262 0.804960356 0.088849194
0.629511034 0.875974939 0.088849194
0.533957631 0.937286234 0.088849194
0.432489509 0.988215088 0.088849194
0.326230646 1.028197355 0.088849194
0.216358083 1.056790147 0.088849194
0.104088893 1.073676738 0.088849194
-0.009333302 1.078670072 0.088849194
-0.122652111 1.071714839 0.088849194
-0.234612287 1.052888081 0.088849194
-0.343973632 1.022398345 0.088849194
-0.449524737 0.98058337 0.088849194
-0.550096398 0.927906347 0.088849194
-0.64457457 0.864950784 0.088849194
-0.731912706 0.79241405 0.088849194
-0.81114335 0.711099643 0.088849194
-0.881388854 0.621908292 0.088849194
-0.941871099 0.525827983 0.088849194
-0.991920117 0.423923009 0.088849194
-1.030981506 0.317322185 0.088849194
-1.05862258 0.207206343 0.088849194
-1.074537155 0.094795248 0.088849194
-1.078548942 -0.018665905 0.088849194
-1.070613502 -0.131920294 0.088849194
-1.050818739 -0.243713385 0.088849194
-1.01938392 -0.352806831 0.088849194
-0.976657253 -0.45799219 0.088849194
-0.923112027 -0.55810431 0.088849194
-0.85934137 -0.652034237 0.088849194
-0.786051677 -0.738741495 0.088849194
-0.704054788 -0.817265619 0.088849194
-0.614258992 -0.886736785 0.088849194
-0.517658971 -0.946385453 0.088849194
-0.415324773 -0.995550887 0.088849194
-0.30838997 -1.033688475 0.088849194
-0.19803909 -1.060375761 0.088849194
-0.085494506 -1.075317128 0.088849194
0.027997111 -1.078347067 0.088849194
0.141178601 -1.069432017 0.088849194
0.252796238 -1.048670729 0.088849194
0.361613617 -1.01629318 0.088849194
0.466425356 -0.97265802 0.088849194
0.566070441 -0.9182486 0.088849194
0.65944509 -0.853667622 0.088849194
0.74551498 -0.779630457 0.088849194
0.823326704 -0.696957225 0.088849194
0.892018332 -0.606563707 0.088849194
0.950828957 -0.509451204 0.088849194
0.999107127 -0.406695445 0.088849194
1.036318057 -0.299434667 0.088849194
1.062049558 -0.188857012 0.088849194
1.076016599 -0.076187364 0.088849194
1.083991548 0 0.029664572
1.078046094 0.113376784 0.029664572
1.060274952 0.225509875 0.029664572
1.030873062 0.335169222 0.029664572
0.99016295 0.441151911 0.029664572
0.938591189 0.542295359 0.029664572
0.876723498 0.637490067 0.029664572
0.805238537 0.725691791 0.029664572
0.724920466 0.805932996 0.029664572
0.636650338 0.877333473 0.029664572
0.541396438 0.93910999 0.029664572
0.440203658 0.990584886 0.029664572
0.334182039 1.031193503 0.029664572
0.22449459 1.060490384 0.029664572
0.112344536 1.078154155 0.029664572
-0.001037889 1.083991051 0.029664572
-0.114408929 1.077937045 0.029664572
-0.226524953 1.060058547 0.029664572
-0.336156098 1.030551675 0.029664572
-0.44209976 0.989740107 0.029664572
-0.543193783 0.938071527 0.029664572
-0.638329211 0.876112718 0.029664572
-0.726462449 0.80454334 0.029664572
-0.806626716 0.724148477 0.029664572
-0.877942644 0.635810026 0.029664572
-0.93962793 0.54049702 0.029664572
-0.991005913 0.439255001 0.029664572
-1.031513 0.333194549 0.029664572
-1.060704845 0.2234791 0.029664572
-1.078261227 0.111312184 0.029664572
-1.083989561 -0.002075777 0.029664572
-1.077827008 -0.115440968 0.029664572
-1.05984117 -0.227539823 0.029664572
-1.030229343 -0.337142667 0.029664572
-0.989316356 -0.443047204 0.029664572
-0.937551006 -0.54409171 0.029664572
-0.875501136 -0.63916777 0.029664572
-0.803847406 -0.727232442 0.029664572
-0.723375825 -0.807319697 0.029664572
-0.634969131 -0.878551011 0.029664572
-0.539597107 -0.940145009 0.029664572
-0.438305942 -0.991426033 0.029664572
-0.332206754 -1.031831551 0.029664572
-0.222463405 -1.060918333 0.029664572
-0.11027973 -1.078367311 0.029664572
0.003113664 -1.083987076 0.029664572
0.116472902 -1.077715983 0.029664572
0.228554485 -1.059622822 0.029664572
0.338128925 -1.029906067 0.029664572
0.443994241 -0.988891698 0.029664572
0.544989137 -0.937029624 0.029664572
0.640005743 -0.874888751 0.029664572
0.728001769 -0.803150734 0.029664572
0.808011937 -0.722602509 0.029664572
0.879158572 -0.634127654 0.029664572
0.940661226 -0.5386967 0.029664572
0.991845243 -0.43735648 0.029664572
1.032149156 -0.331218654 0.029664572
1.061130849 -0.221447505 0.029664572
1.078472406 -0.109247176 0.029664572
1.083991548 0 -0.029664572
1.078046094 0.113376784 -0.029664572
1.060274952 0.225509875 -0.029664572
1.030873062 0.335169222 -0.029664572
0.99016295 0.441151911 -0.029664572
0.938591189 0.542295359 -0.029664572
0.876723498 0.637490067 -0.029664572
0.805238537 0.725691791 -0.029664572
0.724920466 0.805932996 -0.029664572
0.636650338 0.877333473 -0.029664572
0.541396438 0.93910999 -0.029664572
0.440203658 0.990584886 -0.029664572
0.334182039 1.031193503 -0.029664572
0.22449459 1.060490384 -0.029664572
0.112344536 1.078154155 -0.029664572
-0.001037889 1.083991051 -0.029664572
-0.114408929 1.077937045 -0.029664572
-0.226524953 1.060058547 -0.029664572
-0.336156098 1.030551675 -0.029664572
-0.44209976 0.989740107 -0.029664572
-0.543193783 0.938071527 -0.029664572
-0.638329211 0.876112718 -0.029664572
-0.726462449 0.80454334 -0.029664572
-0.806626716 0.724148477 -0.029664572
-0.877942644 0.635810026 -0.029664572
-0.93962793 0.54049702 -0.029664572
-0.991005913 0.439255001 -0.029664572
-1.031513 0.333194549 -0.029664572
-1.060704845 0.2234791 -0.029664572
-1.078261227 0.111312184 -0.029664572
-1.083989561 -0.002075777 -0.029664572
-1.077827008 -0.115440968 -0.029664572
-1.05984117 -0.227539823 -0.029664572
-1.030229343 -0.337142667 -0.029664572
-0.989316356 -0.443047204 -0.029664572
-0.937551006 -0.54409171 -0.029664572
-0.875501136 -0.63916777 -0.029664572
-0.803847406 -0.727232442 -0.029664572
-0.723375825 -0.807319697 -0.029664572
-0.634969131 -0.878551011 -0.029664572
-0.539597107 -0.940145009 -0.029664572
-0.438305942 -0.991426033 -0.029664572
-0.332206754 -1.031831551 -0.029664572
-0.222463405 -1.060918333 -0.029664572
-0.11027973 -1.078367311 -0.029664572
0.003113664 -1.083987076 -0.029664572
0.116472902 -1.077715983 -0.029664572
0.228554485 -1.059622822 -0.029664572
0.338128925 -1.029906067 -0.029664572
0.443994241 -0.988891698 -0.029664572
0.544989137 -0.937029624 -0.029664572
0.640005743 -0.874888751 -0.029664572
0.728001769 -0.803150734 -0.029664572
0.808011937 -0.722602509 -0.029664572
0.879158572 -0.634127654 -0.029664572
0.940661226 -0.5386967 -0.029664572
0.991845243 -0.43735648 -0.029664572
1.032149156 -0.331218654 -0.029664572
1.061130849 -0.221447505 -0.029664572
1.078472406 -0.109247176 -0.029664572
1.07871045 0 -0.088849194
1.072735943 0.113374746 -0.088849194
1.0548786 0.225493626 -0.088849194
1.02533623 0.335114683 -0.088849194
0.984436078 0.441023631 -0.088849194
0.9326312 0.542047304 -0.088849194
0.870495446 0.637066648 -0.088849194
0.7987171 0.725029123 -0.088849194
0.718091262 0.804960356 -0.088849194
0.629511034 0.875974939 -0.088849194
0.533957631 0.937286234 -0.088849194
0.432489509 0.988215088 -0.088849194
0.326230646 1.028197355 -0.088849194
0.216358083 1.056790147 -0.088849194
0.104088893 1.073676738 -0.088849194
-0.009333302 1.078670072 -0.088849194
-0.122652111 1.071714839 -0.088849194
-0.234612287 1.052888081 -0.088849194
-0.343973632 1.022398345 -0.088849194
-0.449524737 0.98058337 -0.088849194
-0.550096398 0.927906347 -0.088849194
-0.64457457 0.864950784 -0.088849194
-0.731912706 0.79241405 -0.088849194
-0.81114335 0.711099643 -0.088849194
-0.881388854 0.621908292 -0.088849194
-0.941871099 0.525827983 -0.088849194
-0.991920117 0.423923009 -0.088849194
-1.030981506 0.317322185 -0.088849194
-1.05862258 0.207206343 -0.088849194
-1.074537155 0.094795248 -0.088849194
-1.078548942 -0.018665905 -0.088849194
-1.070613502 -0.131920294 -0.088849194
-1.050818739 -0.243713385 -0.088849194
-1.01938392 -0.352806831 -0.088849194
-0.976657253 -0.45799219 -0.088849194
-0.923112027 -0.55810431 -0.088849194
-0.85934137 -0.652034237 -0.088849194
-0.786051677 -0.738741495 -0.088849194
-0.704054788 -0.817265619 -0.088849194
-0.614258992 -0.886736785 -0.088849194
-0.517658971 -0.946385453 -0.088849194
-0.415324773 -0.995550887 -0.088849194
-0.30838997 -1.033688475 -0.088849194
-0.19803909 -1.060375761 -0.088849194
-0.085494506 -1.075317128 -0.088849194
0.027997111 -1.078347067 -0.088849194
0.141178601 -1.069432017 -0.088849194
0.252796238 -1.048670729 -0.088849194
0.361613617 -1.01629318 -0.088849194
0.466425356 -0.97265802 -0.088849194
0.566070441 -0.9182486 -0.088849194
0.65944509 -0.853667622 -0.088849194
0.74551498 -0.779630457 -0.088849194
0.823326704 -0.696957225 -0.088849194
0.892018332 -0.606563707 -0.088849194
0.950828957 -0.509451204 -0.088849194
0.999107127 -0.406695445 -0.088849194
1.036318057 -0.299434667 -0.088849194
1.062049558 -0.188857012 -0.088849194
1.076016599 -0.076187364 -0.088849194
1.068173984 0 -0.147600951
1.062140654 0.11337059 -0.147600951
1.04410882 0.225460485 -0.147600951
1.01428218 0.335003459 -0.147600951
0.972997671 0.440762057 -0.147600951
0.920721665 0.541541573 -0.147600951
0.858044699 0.636203548 -0.147600951
0.785674805 0.723678631 -0.147600951
0.704429512 0.802978656 -0.147600951
0.61522661 0.873207809 -0.147600951
0.519073782 0.933572744 -0.147600951
0.417057221 0.983391546 -0.147600951
0.310329362 1.022101437 -0.147600951
0.200095857 1.049265127 -0.147600951
0.087601963 1.064575763 -0.147600951
-0.025881529 1.067860387 -0.147600951
-0.139072649 1.059081894 -0.147600951
-0.250692731 1.03833945 -0.147600951
-0.359480855 1.005867374 -0.147600951
-0.464208093 0.962032487 -0.147600951
-0.56369139 0.907329971 -0.147600951
-0.65680693 0.842377775 -0.147600951
-0.742502832 0.767909633 -0.147600951
-0.819811027 0.684766777 -0.147600951
-0.887858203 0.593888432 -0.147600951
-0.945875663 0.496301209 -0.147600951
-0.993208009 0.393107505 -0.147600951
-1.029320551 0.285473049 -0.147600951
-1.053805343 0.174613739 -0.147600951
-1.066385791 0.0617819 -0.147600951
-1.066919781 -0.051747861 -0.147600951
-1.055401278 -0.16469305 -0.147600951
-1.031960404 -0.275777779 -0.147600951
-0.996861958 -0.383747176 -0.147600951
-0.950502431 -0.487381562 -0.147600951
-0.893405525 -0.585510228 -0.147600951
-0.826216237 -0.677024659 -0.147600951
-0.749693572 -0.760891061 -0.147600951
-0.664701971 -0.836162035 -0.147600951
-0.572201545 -0.901987279 -0.147600951
-0.473237226 -0.957623197 -0.147600951
-0.368926969 -1.002441295 -0.147600951
-0.260449118 -1.035935286 -0.147600951
-0.149029095 -1.057726802 -0.147600951
-0.035925561 -1.067569676 -0.147600951
0.077583808 -1.065352717 -0.147600951
0.190216749 -1.051100969 -0.147600951
0.3007009 -1.024975428 -0.147600951
0.407788175 -0.987271221 -0.147600951
0.510268859 -0.938414275 -0.147600951
0.606985275 -0.878956504 -0.147600951
0.696844863 -0.809569574 -0.147600951
0.778832523 -0.731037318 -0.147600951
0.852022078 -0.644246876 -0.147600951
0.91558674 -0.550178681 -0.147600951
0.968808449 -0.449895375 -0.147600951
1.011085984 -0.344529813 -0.147600951
1.041941756 -0.23527226 -0.147600951
1.061027202 -0.123356946 -0.147600951
1.068126722 -0.010048127 -0.147600951
1.052433481 0 -0.205633611
1.046310089 0.113364146 -0.205633611
1.028011168 0.225409115 -0.205633611
0.997749657 0.334831081 -0.205633611
0.955877698 0.440356739 -0.205633611
0.902882539 0.540758127 -0.205633611
0.839380865 0.634866911 -0.205633611
0.766111623 0.721587979 -0.205633611
0.68392742 0.799912192 -0.205633611
0.593784603 0.868928119 -0.205633611
0.496732132 0.927832647 -0.205633611
0.39389937 0.975940325 -0.205633611
0.286482945 1.012691342 -0.205633611
0.175732823 1.037658039 -0.205633611
0.062937762 1.050549889 -0.205633611
-0.050589683 1.051216873 -0.205633611
-0.163528434 1.039651231 -0.205633611
-0.274564265 1.015987547 -0.205633611
-0.382405091 0.980501187 -0.205633611
-0.485796009 0.933605092 -0.205633611
-0.583533896 0.875844977 -0.205633611
-0.674481413 0.807892972 -0.205633611
-0.757580235 0.730539813 -0.205633611
-0.831863373 0.644685628 -0.205633611
-0.896466421 0.551329473 -0.205633611
-0.950637616 0.451557697 -0.205633611
-0.993746589 0.34653131 -0.205633611
-1.025291695 0.237472464 -0.205633611
-1.044905856 0.125650238 -0.205633611
-1.05236083 0.012365865 -0.205633611
-1.047569865 -0.101062404 -0.205633611
-1.030588712 -0.213314647 -0.205633611
-1.001614974 -0.323084625 -0.205633611
-0.960985809 -0.429094985 -0.205633611
-0.909174003 -0.530112124 -0.205633611
-0.846782471 -0.624960542 -0.205633611
-0.77453724 -0.712536522 -0.205633611
-0.693279003 -0.791820974 -0.205633611
-0.603953331 -0.861891296 -0.205633611
-0.507599674 -0.921932102 -0.205633611
-0.405339266 -0.971244722 -0.205633611
-0.298362073 -1.009255322 -0.205633611
-0.187912949 -1.035521586 -0.205633611
-0.075277151 -1.049737863 -0.205633611
0.03823462 -1.051738725 -0.205633611
0.151301469 -1.041500887 -0.205633611
0.262607678 -1.019143483 -0.205633611
0.370858017 -0.984926679 -0.205633611
0.474792816 -0.939248643 -0.205633611
0.573202626 -0.882640913 -0.205633611
0.664942285 -0.815762213 -0.205633611
0.748944254 -0.739390787 -0.205633611
0.824231032 -0.65441534 -0.205633611
0.889926535 -0.5618247 -0.205633611
0.945266287 -0.462696312 -0.205633611
0.989606321 -0.358183695 -0.205633611
1.022430668 -0.249503026 -0.205633611
1.043357362 -0.137918981 -0.205633611
1.052142888 -0.024730024 -0.205633611
1.031565627 0 -0.262664445
1.025318611 0.113355145 -0.262664445
1.006653225 0.225337365 -0.262664445
0.975795539 0.334590362 -0.262664445
0.933119291 0.439790895 -0.262664445
0.879141366 0.539664805 -0.262664445
0.814515529 0.633002447 -0.262664445
0.740024508 0.718673341 -0.262664445
0.65657052 0.795639866 -0.262664445
0.565164334 0.862969825 -0.262664445
0.466913037 0.919847737 -0.262664445
0.363006621 0.965584712 -0.262664445
0.254703571 0.999626798 -0.262664445
0.143315623 1.021561685 -0.262664445
0.030191877 1.031123705 -0.262664445
-0.083297545 1.028197045 -0.262664445
-0.19577809 1.012817152 -0.262664445
-0.305887427 0.985170303 -0.262664445
-0.412291941 0.945591349 -0.262664445
-0.513702891 0.894559659 -0.262664445
-0.608892017 0.832693314 -0.262664445
-0.696706414 0.760741623 -0.262664445
-0.776082499 0.679576043 -0.262664445
-0.846058891 0.59017963 -0.262664445
-0.905788057 0.493635128 -0.262664445
-0.954546573 0.391111856 -0.262664445
-0.99174389 0.283851547 -0.262664445
-1.016929484 0.173153308 -0.262664445
-1.029798315 0.060357885 -0.262664445
-1.030194519 -0.053168575 -0.262664445
-1.018113297 -0.166051073 -0.262664445
-0.993700973 -0.276922407 -0.262664445
-0.957253224 -0.384439734 -0.262664445
-0.909211493 -0.487300836 -0.262664445
-0.850157648 -0.584259888 -0.262664445
-0.780806934 -0.674142548 -0.262664445
-0.701999306 -0.755860184 -0.262664445
-0.61468926 -0.828423054 -0.262664445
-0.519934272 -0.890952298 -0.262664445
-0.418881985 -0.942690578 -0.262664445
-0.312756319 -0.983011256 -0.262664445
-0.202842635 -1.011425978 -0.262664445
-0.090472179 -1.027590594 -0.262664445
0.022994051 -1.031309322 -0.262664445
0.136181783 -1.022537122 -0.262664445
0.24772012 -1.001380241 -0.262664445
0.35625814 -0.968094924 -0.262664445
0.460481262 -0.923084314 -0.262664445
0.559127165 -0.866893567 -0.262664445
0.651001078 -0.80020325 -0.262664445
0.734990248 -0.723821096 -0.262664445
0.810077424 -0.638672225 -0.262664445
0.87535317 -0.545787936 -0.262664445
0.930026886 -0.446293217 -0.262664445
0.973436377 -0.341393121 -0.262664445
1.005055882 -0.232358167 -0.262664445
1.024502433 -0.120508956 -0.262664445
1.031540499 -0.007200175 -0.262664445
1.00567209 0 -0.318415604
0.999264567 0.113343189 -0.318415604
0.980123646 0.225242072 -0.318415604
0.948493237 0.334270748 -0.318415604
0.904776397 0.439039889 -0.318415604
0.849530202 0.538214446 -0.318415604
0.783458639 0.630530661 -0.318415604
0.707403644 0.714812169 -0.318415604
0.622334368 0.789984992 -0.318415604
0.52933483 0.855091218 -0.318415604
0.4295901 0.909301215 -0.318415604
0.324371202 0.951924197 -0.318415604
0.215018918 0.982417029 -0.318415604
0.102926697 1.000391148 -0.318415604
-0.010477095 1.005617514 -0.318415604
-0.123747379 0.998029528 -0.318415604
-0.23544078 0.977723884 -0.318415604
-0.344134013 0.94495933 -0.318415604
-0.448442026 0.900153377 -0.318415604
-0.547035646 0.843876979 -0.318415604
-0.638658517 0.776847251 -0.318415604
-0.72214311 0.699918339 -0.318415604
-0.796425601 0.614070529 -0.318415604
-0.860559425 0.520397761 -0.318415604
-0.913727339 0.420093684 -0.318415604
-0.955251837 0.31443645 -0.318415604
-0.984603782 0.204772426 -0.318415604
-1.001409148 0.092499034 -0.318415604
-1.005453789 -0.020953052 -0.318415604
-0.996686166 -0.134138138 -0.318415604
-0.975218001 -0.245613933 -0.318415604
-0.941322859 -0.353959926 -0.318415604
-0.895432657 -0.45779549 -0.318415604
-0.838132164 -0.555797471 -0.318415604
-0.770151547 -0.646717054 -0.318415604
-0.692357066 -0.729395672 -0.318415604
-0.60574004 -0.802779769 -0.318415604
-0.511404209 -0.865934229 -0.318415604
-0.410551672 -0.918054289 -0.318415604
-0.30446757 -0.958475796 -0.318415604
-0.194503708 -0.986683668 -0.318415604
-0.082061331 -1.002318458 -0.318415604
0.031426735 -1.005180936 -0.318415604
0.144514338 -0.995234625 -0.318415604
0.255760427 -0.97260627 -0.318415604
0.363747421 -0.937584219 -0.318415604
0.467099265 -0.890614748 -0.318415604
0.564498972 -0.83229638 -0.318415604
0.654705399 -0.763372251 -0.318415604
0.736569066 -0.684720647 -0.318415604
0.809046804 -0.597343806 -0.318415604
0.871215046 -0.50235515 -0.318415604
0.922281596 -0.4009651 -0.318415604
0.961595725 -0.294465643 -0.318415604
0.988656462 -0.18421388 -0.318415604
1.003118978 -0.071614721 -0.318415604
0.97487902 0 -0.372615475
0.968269556 0.113327713 -0.372615475
0.948530785 0.225118753 -0.372615475
0.915930357 0.333857282 -0.372615475
0.870910318 0.438068854 -0.372615475
0.814081121 0.536340406 -0.372615475
0.746213345 0.62733942 -0.372615475
0.668227245 0.709831989 -0.372615475
0.58118028 0.78269955 -0.372615475
0.486252768 0.844954051 -0.372615475
0.384731883 0.89575135 -0.372615475
0.277994204 0.934402657 -0.372615475
0.167487047 0.960383878 -0.372615475
0.054708839 0.973342718 -0.372615475
-0.058811196 0.973103461 -0.372615475
-0.171533777 0.959669353 -0.372615475
-0.281930436 0.933222552 -0.372615475
-0.388504243 0.894121667 -0.372615475
-0.489810105 0.842896888 -0.372615475
-0.584474358 0.7802428 -0.372615475
-0.671213398 0.707008965 -0.372615475
-0.748851081 0.624188402 -0.372615475
-0.816334675 0.53290412 -0.372615475
-0.872749133 0.434393894 -0.372615475
-0.917329498 0.329993479 -0.372615475
-0.949471281 0.221118498 -0.372615475
-0.968738653 0.109245249 -0.372615475
-0.974870359 -0.004109318 -0.372615475
-0.967783254 -0.117408164 -0.372615475
-0.947573436 -0.229115008 -0.372615475
-0.914514942 -0.337715153 -0.372615475
-0.86905603 -0.44173603 -0.372615475
-0.811813102 -0.539767163 -0.372615475
-0.743562349 -0.630479291 -0.372615475
-0.665229219 -0.712642399 -0.372615475
-0.577875875 -0.785142392 -0.372615475
-0.48268679 -0.846996202 -0.372615475
-0.380952686 -0.897365117 -0.372615475
-0.274053033 -0.935566159 -0.372615475
-0.163437341 -0.961081338 -0.372615475
-0.050605511 -0.97356468 -0.372615475
0.062912507 -0.972846915 -0.372615475
0.175577459 -0.958937776 -0.372615475
0.285861659 -0.932025866 -0.372615475
0.392269701 -0.892476098 -0.372615475
0.493358739 -0.840824748 -0.372615475
0.587758052 -0.777772187 -0.372615475
0.674187625 -0.70417338 -0.372615475
0.751475513 -0.621026293 -0.372615475
0.818573725 -0.529458365 -0.372615475
0.87457244 -0.430711215 -0.372615475
0.918712339 -0.326123812 -0.372615475
0.950394906 -0.217114315 -0.372615475
0.969190539 -0.105160843 -0.372615475
0.939336437 0 -0.425
0.932477482 0.113307926 -0.425
0.912000787 0.224961122 -0.425
0.878205387 0.333329025 -0.425
0.831584827 0.436829047 -0.425
0.772819944 0.533949693 -0.425
0.702768932 0.623272629 -0.425
0.622454801 0.703493398 -0.425
0.533050448 0.77344047 -0.425
0.435861517 0.83209235 -0.425
0.332307339 0.878592496 -0.425
0.223900202 0.912261827 -0.425
0.112223264 0.932608643 -0.425
-0.001092563 0.939335801 -0.425
-0.114392434 0.932345061 -0.425
-0.226021738 0.911738512 -0.425
-0.334350259 0.877817091 -0.425
-0.437795986 0.831076179 -0.425
-0.534848216 0.772198373 -0.425
-0.624089613 0.702043514 -0.425
-0.704216913 0.621636132 -0.425
-0.77405995 0.532150482 -0.425
-0.832598747 0.434893397 -0.425
-0.878978415 0.331285204 -0.425
-0.912521633 0.222838979 -0.425
-0.932738541 0.111138451 -0.425
-0.939333895 -0.002185124 -0.425
-0.932211378 -0.115476788 -0.425
-0.911475005 -0.227082048 -0.425
-0.877427607 -0.335371041 -0.425
-0.830566407 -0.438762333 -0.425
-0.771575757 -0.535746015 -0.425
-0.701317147 -0.624905753 -0.425
-0.620816621 -0.704939475 -0.425
-0.531249796 -0.774678382 -0.425
-0.433924689 -0.833104018 -0.425
-0.330262621 -0.879363146 -0.425
-0.221777454 -0.912780205 -0.425
-0.110053487 -0.932867178 -0.425
0.003277683 -0.939330718 -0.425
0.116560985 -0.932076434 -0.425
0.228142051 -0.911210264 -0.425
0.33639137 -0.877036936 -0.425
0.439728086 -0.830055511 -0.425
0.536643089 -0.770952097 -0.425
0.625721048 -0.700589831 -0.425
0.705661084 -0.619996271 -0.425
0.775295766 -0.530348391 -0.425
0.833608162 -0.432955394 -0.425
0.879746687 -0.329239591 -0.425
0.913037542 -0.220715629 -0.425
0.932994552 -0.108968374 -0.425
0.899217501 0 -0.475313968
0.892053328 0.113282714 -0.475313968
0.870674966 0.224760355 -0.475313968
0.835423062 0.332656611 -0.475313968
0.786859329 0.435252238 -0.475313968
0.725757592 0.530912452 -0.475313968
0.653091462 0.61811298 -0.475313968
0.570018817 0.69546435 -0.475313968
0.477863356 0.761734026 -0.475313968
0.378093508 0.815866051 -0.475313968
0.272299028 0.856997872 -0.475313968
0.16216567 0.884474086 -0.475313968
0.049448327 0.89785688 -0.475313968
-0.064056939 0.896933009 -0.475313968
-0.176541505 0.881717194 -0.475313968
-0.286213018 0.852451889 -0.475313968
-0.391323944 0.809603412 -0.475313968
-0.490199422 0.753854522 -0.475313968
-0.581263945 0.686093536 -0.475313968
-0.663066471 0.607400172 -0.475313968
-0.734303538 0.519028349 -0.475313968
-0.793840039 0.422386206 -0.475313968
-0.840727303 0.31901366 -0.475313968
-0.874218219 0.210557875 -0.475313968
-0.893779135 0.098747011 -0.475313968
-0.899098361 -0.014637312 -0.475313968
-0.890091141 -0.1277884 -0.475313968
-0.866900997 -0.238903277 -0.475313968
-0.829897446 -0.346211413 -0.475313968
-0.779670113 -0.448002934 -0.475313968
-0.717019331 -0.54265587 -0.475313968
-0.642943392 -0.628661998 -0.475313968
-0.558622641 -0.704650877 -0.475313968
-0.465400664 -0.769411681 -0.475313968
-0.364762883 -0.821912497 -0.475313968
-0.258312883 -0.861316764 -0.475313968
-0.147746864 -0.886996605 -0.475313968
-0.034826611 -0.898542832 -0.475313968
0.078648577 -0.895771464 -0.475313968
0.190870559 -0.87872666 -0.475313968
0.300051165 -0.847680017 -0.475313968
0.404450685 -0.80312624 -0.475313968
0.502405591 -0.745775258 -0.475313968
0.592355047 -0.676540916 -0.475313968
0.672865778 -0.596526411 -0.475313968
0.742654905 -0.507006712 -0.475313968
0.800610392 -0.409408248 -0.475313968
0.845808764 -0.305286175 -0.475313968
0.877529818 -0.1962996 -0.475313968
0.895268103 -0.084185141 -0.475313968
0.854717668 0 -0.523312254
0.847181572 0.113250498 -0.523312254
0.824706178 0.224503924 -0.523312254
0.787687818 0.331798422 -0.523312254
0.73677928 0.433241947 -0.523312254
0.672878289 0.527045633 -0.523312254
0.597111685 0.611555335 -0.523312254
0.510815543 0.685280799 -0.523312254
0.41551162 0.746921941 -0.523312254
0.312880516 0.795391774 -0.523312254
0.204732041 0.829835576 -0.523312254
0.092973298 0.84964596 -0.523312254
-0.020424948 0.854473588 -0.523312254
-0.133463018 0.844233329 -0.523312254
-0.244147585 0.819105761 -0.523312254
-0.350526825 0.779533987 -0.523312254
-0.450724834 0.726215819 -0.523312254
-0.542974709 0.660091476 -0.523312254
-0.625649705 0.582327003 -0.523312254
-0.69729192 0.494293708 -0.523312254
-0.756638009 0.397543979 -0.523312254
-0.802641454 0.293783914 -0.523312254
-0.834491026 0.184843229 -0.523312254
-0.851625086 0.072642997 -0.523312254
-0.853741489 -0.04083823 -0.523312254
-0.840802916 -0.153599312 -0.523312254
-0.813037525 -0.263651804 -0.523312254
-0.770934936 -0.369055031 -0.523312254
-0.71523759 -0.467950297 -0.523312254
-0.646927661 -0.558593674 -0.523312254
-0.567209734 -0.639386744 -0.523312254
-0.477489565 -0.708904794 -0.523312254
-0.379349288 -0.765921934 -0.523312254
-0.274519522 -0.809432717 -0.523312254
-0.164848846 -0.838669869 -0.523312254
-0.052271207 -0.853117819 -0.523312254
0.061228189 -0.852521789 -0.523312254
0.17364788 -0.83689229 -0.523312254
0.283005443 -0.806504935 -0.523312254
0.387372456 -0.761895578 -0.523312254
0.484908498 -0.703850865 -0.523312254
0.573893606 -0.633394364 -0.523312254
0.652758608 -0.551768512 -0.523312254
0.720112788 -0.460412711 -0.523312254
0.774768415 -0.360937937 -0.523312254
0.815761685 -0.255098342 -0.523312254
0.842369719 -0.144760313 -0.523312254
0.854123306 -0.031869563 -0.523312254
0.806053736 0 -0.568761015
0.798064127 0.11320899 -0.568761015
0.774253684 0.224173724 -0.568761015
0.735094427 0.330694435 -0.568761015
0.681362649 0.430659455 -0.568761015
0.614123529 0.522087077 -0.568761015
0.534710017 0.603164839 -0.568761015
0.444696408 0.672285453 -0.568761015
0.345867131 0.728078673 -0.568761015
0.24018138 0.769438451 -0.568761015
0.12973427 0.795544873 -0.568761015
0.016715306 0.805880403 -0.568761015
-0.096635021 0.80024015 -0.568761015
-0.208069656 0.778735927 -0.568761015
-0.315379514 0.741794033 -0.568761015
-0.416437285 0.690146805 -0.568761015
-0.509239599 0.624818099 -0.568761015
-0.59194674 0.54710299 -0.568761015
-0.662919122 0.458542106 -0.568761015
-0.720749787 0.360891077 -0.568761015
-0.7642923 0.256085739 -0.568761015
-0.792683473 0.146203754 -0.568761015
-0.805360478 0.033423424 -0.568761015
-0.802072008 -0.080019492 -0.568761015
-0.782883253 -0.191876101 -0.568761015
-0.74817461 -0.299928956 -0.568761015
-0.698634145 -0.402036015 -0.568761015
-0.635243947 -0.496173108 -0.568761015
-0.559260666 -0.580474058 -0.568761015
-0.472190595 -0.653267684 -0.568761015
-0.375759812 -0.713110924 -0.568761015
-0.271879961 -0.758817443 -0.568761015
-0.162610359 -0.789481157 -0.568761015
-0.050117167 -0.804494186 -0.568761015
0.063369548 -0.803558912 -0.568761015
0.175600025 -0.786693877 -0.568761015
0.284349405 -0.754233413 -0.568761015
0.387461838 -0.706821017 -0.568761015
0.482893223 -0.645396592 -0.568761015
0.568751727 -0.571177817 -0.568761015
0.64333529 -0.485636005 -0.568761015
0.705165366 -0.39046694 -0.568761015
0.753016236 -0.287557254 -0.568761015
0.785939302 -0.178947029 -0.568761015
0.803281898 -0.066789355 -0.568761015
0.753462792 0 -0.61143883
0.744917559 0.113154799 -0.61143883
0.719475689 0.223742957 -0.61143883
0.677714269 0.329256052 -0.61143883
0.620580555 0.427300777 -0.61143883
0.549370484 0.515653226 -0.61143883
0.465699285 0.59230934 -0.61143883
0.371464833 0.655530362 -0.61143883
0.268804609 0.703882278 -0.61143883
0.160047207 0.736268341 -0.61143883
0.047659526 0.751953953 -0.61143883
-0.065809196 0.750583325 -0.61143883
-0.177785197 0.732187546 -0.61143883
-0.285728574 0.697183878 -0.61143883
-0.387190896 0.646366296 -0.61143883
-0.479870737 0.580887471 -0.61143883
-0.561665882 0.502232631 -0.61143883
-0.630721006 0.41218587 -0.61143883
-0.685469763 0.312789678 -0.61143883
-0.724670311 0.206298615 -0.61143883
-0.747433482 0.095128171 -0.61143883
-0.753242947 -0.018200023 -0.61143883
-0.741966935 -0.131115394 -0.61143883
-0.713861212 -0.241056732 -0.61143883
-0.66956329 -0.345530286 -0.61143883
-0.610077959 -0.442166329 -0.61143883
-0.536754497 -0.528772908 -0.61143883
-0.45125607 -0.603385563 -0.61143883
-0.355522 -0.664311889 -0.61143883
-0.25172378 -0.710169921 -0.61143883
-0.142215821 -0.739919481 -0.61143883
-0.029482043 -0.752885773 -0.61143883
0.083920463 -0.748774689 -0.61143883
0.195419439 -0.727679477 -0.61143883
0.302485801 -0.690078632 -0.61143883
0.402691011 -0.636825037 -0.61143883
0.493762158 -0.569126621 -0.61143883
0.573633515 -0.488518955 -0.61143883
0.640493395 -0.396830429 -0.61143883
0.692825246 -0.296140773 -0.61143883
0.729442046 -0.188733886 -0.61143883
0.749513234 -0.077046031 -0.61143883
0.697201052 0 -0.651137777
0.687969186 0.113082742 -0.651137777
0.660518071 0.223170752 -0.651137777
0.615574687 0.32734861 -0.651137777
0.554329252 0.422857408 -0.651137777
0.478403709 0.507167821 -0.651137777
0.389808767 0.578047085 -0.651137777
0.290890655 0.633618129 -0.651137777
0.184268988 0.672409286 -0.651137777
0.072767389 0.693393261 -0.651137777
-0.040661284 0.696014344 -0.651137777
-0.153013137 0.680203122 -0.651137777
-0.261312797 0.646378317 -0.651137777
-0.362692202 0.595435701 -0.651137777
-0.454466555 0.528724368 -0.651137777
-0.534205429 0.448011012 -0.651137777
-0.599797126 0.355433137 -0.651137777
-0.649504605 0.253442449 -0.651137777
-0.68201148 0.144739934 -0.651137777
-0.696456882 0.032204321 -0.651137777
-0.69245826 -0.081184148 -0.651137777
-0.670121506 -0.192422645 -0.651137777
-0.630038158 -0.29856528 -0.651137777
-0.573269729 -0.396801115 -0.651137777
-0.501319598 -0.484528604 -0.651137777
-0.416093194 -0.559424491 -0.651137777
-0.319847539 -0.619505334 -0.651137777
-0.215131473 -0.663180033 -0.651137777
-0.104718155 -0.689291967 -0.651137777
0.008468377 -0.697149621 -0.651137777
0.121430644 -0.686544905 -0.651137777
0.231177106 -0.657758659 -0.651137777
0.334801385 -0.611553219 -0.651137777
0.429559235 -0.549152229 -0.651137777
0.512941218 -0.472208232 -0.651137777
0.582739157 -0.382758908 -0.651137777
0.637104618 -0.283173114 -0.651137777
0.67459786 -0.176088145 -0.651137777
0.694225961 -0.064339894 -0.651137777
0.637542619 0 -0.687664445
0.627451251 0.112984595 -0.687664445
0.597496611 0.222392428 -0.687664445
0.548626973 0.324759966 -0.687664445
0.482389409 0.416846554 -0.687664445
0.400880807 0.495736997 -0.687664445
0.306681489 0.558933856 -0.687664445
0.202773532 0.604436503 -0.687664445
0.092446357 0.630804457 -0.687664445
-0.020807399 0.637202985 -0.687664445
-0.133402453 0.623429529 -0.687664445
-0.241774376 0.589920116 -0.687664445
-0.342492429 0.537735556 -0.687664445
-0.432368172 0.46852786 -0.687664445
-0.508556403 0.384487941 -0.687664445
-0.568645224 0.288276258 -0.687664445
-0.610732399 0.182938591 -0.687664445
-0.633485572 0.071809623 -0.687664445
-0.636184442 -0.041592628 -0.687664445
-0.618743573 -0.153678178 -0.687664445
-0.58171509 -0.260898726 -0.687664445
-0.526271208 -0.359859982 -0.687664445
-0.454167118 -0.447429124 -0.687664445
-0.367685423 -0.520833967 -0.687664445
-0.269563883 -0.577750729 -0.687664445
-0.162908738 -0.616377591 -0.687664445
-0.051096379 -0.63549174 -0.687664445
0.062333542 -0.634488078 -0.687664445
0.173790166 -0.613398378 -0.687664445
0.279745101 -0.572890278 -0.687664445
0.376844124 -0.514246145 -0.687664445
0.462013363 -0.439322483 -0.687664445
0.532556609 -0.350491155 -0.687664445
0.586240669 -0.250564302 -0.687664445
0.621366063 -0.142705315 -0.687664445
0.636820824 -0.030328694 -0.687664445
0.574778143 0 -0.720840882
0.563591641 0.11284669 -0.720840882
0.530467567 0.221300868 -0.720840882
0.47669526 0.321141002 -0.720840882
0.404367786 0.408480853 -0.720840882
0.316300462 0.479920756 -0.720840882
0.215921272 0.53267994 -0.720840882
0.107137435 0.564704776 -0.720840882
-0.005816682 0.57474871 -0.720840882
-0.118544387 0.562420787 -0.720840882
-0.226657801 0.528200866 -0.720840882
-0.325948652 0.473420943 -0.720840882
-0.412552087 0.400213305 -0.720840882
-0.483097101 0.311427528 -0.720840882
-0.534837758 0.210519562 -0.720840882
-0.565760076 0.101417209 -0.720840882
-0.574660415 -0.011632768 -0.720840882
-0.561192333 -0.124229944 -0.720840882
-0.52588007 -0.23199152 -0.720840882
-0.470098142 -0.330722921 -0.720840882
-0.396017836 -0.416581069 -0.720840882
-0.306522699 -0.48622397 -0.720840882
-0.205096291 -0.536940802 -0.720840882
-0.095686595 -0.566757434 -0.720840882
0.017447663 -0.574513266 -0.720840882
0.129902777 -0.559906405 -0.720840882
0.23730148 -0.523505417 -0.720840882
0.335463319 -0.466727195 -0.720840882
0.420567387 -0.39178181 -0.720840882
0.489301042 -0.301586478 -0.720840882
0.538988855 -0.199652016 -0.720840882
0.567696748 -0.089946182 -0.720840882
0.509213405 0 -0.750505454
0.496597831 0.112644959 -0.750505454
0.459376199 0.219708443 -0.750505454
0.399392815 0.315885535 -0.750505454
0.319619811 0.396410732 -0.750505454
0.224009881 0.457294069 -0.750505454
0.117300426 0.495518821 -0.750505454
0.004778822 0.509190981 -0.750505454
-0.10797957 0.497633102 -0.750505454
-0.215387654 0.46141787 -0.750505454
-0.312123437 0.402339722 -0.750505454
-0.393393735 0.323325937 -0.750505454
-0.455171662 0.22829159 -0.750505454
-0.494396169 0.121945563 -0.750505454
-0.50912371 0.009557222 -0.750505454
-0.498624545 -0.103304671 -0.750505454
-0.463418902 -0.211047894 -0.750505454
-0.405251193 -0.30833385 -0.750505454
-0.327003586 -0.39034209 -0.750505454
-0.232553192 -0.453009167 -0.750505454
-0.126579958 -0.493229973 -0.750505454
-0.014334781 -0.509011597 -0.750505454
0.098620674 -0.499572072 -0.750505454
0.206689547 -0.465379118 -0.750505454
0.304517105 -0.408126971 -0.750505454
0.387256065 -0.330652434 -0.750505454
0.450806772 -0.236794312 -0.750505454
0.492020336 -0.131203206 -0.750505454
0.508854654 -0.019111078 -0.750505454
0.441167831 0 -0.776513639
0.426626501 0.112333805 -0.776513639
0.383961104 0.217262343 -0.776513639
0.315984228 0.307868515 -0.776513639
0.227177044 0.378179383 -0.776513639
0.123393898 0.423559914 -0.776513639
0.011476381 0.441018534 -0.776513639
-0.101197682 0.429404337 -0.776513639
-0.207200593 0.389482951 -0.776513639
-0.299544429 0.323886076 -0.776513639
-0.372141701 0.236937987 -0.776513639
-0.420206652 0.134370475 -0.776513639
-0.440570746 0.022944995 -0.776513639
-0.431891541 -0.089993066 -0.776513639
-0.394741187 -0.196998604 -0.776513639
-0.33156871 -0.291017604 -0.776513639
-0.246538565 -0.365852144 -0.776513639
-0.145256107 -0.416568984 -0.776513639
-0.034398078 -0.439824769 -0.776513639
0.07872754 -0.434086431 -0.776513639
0.186663283 -0.399732253 -0.776513639
0.282293811 -0.33902693 -0.776513639
0.35931497 -0.255972279 -0.776513639
0.412649372 -0.156043426 -0.776513639
0.438781108 -0.045827881 -0.776513639
0.370972931 0 -0.798738728
0.353719692 0.111818135 -0.798738728
0.303564804 0.213235376 -0.798738728
0.225173482 0.294818281 -0.798738728
0.125837387 0.34897832 -0.798738728
0.014796381 0.370677735 -0.798738728
-0.097620927 0.357898129 -0.798738728
-0.200957912 0.311828212 -0.798738728
-0.285602562 0.236753231 -0.798738728
-0.343681558 0.139656373 -0.798738728
-0.369792614 0.029569215 -0.798738728
-0.36150698 -0.083268358 -0.798738728
-0.319595353 -0.188360628 -0.798738728
-0.247956193 -0.275932314 -0.798738728
-0.153253099 -0.337837836 -0.798738728
-0.04429499 -0.368318978 -0.798738728
0.068783269 -0.364540502 -0.798738728
0.175463573 -0.326853867 -0.798738728
0.265822928 -0.258764539 -0.798738728
0.331456454 -0.166605927 -0.798738728
0.366259173 -0.05895027 -0.798738728
0.298970689 0 -0.817072442
0.277652533 0.110871745 -0.817072442
0.216738255 0.205932032 -0.817072442
0.12491486 0.271624282 -0.817072442
0.015277315 0.298580101 -0.817072442
-0.096538933 0.28295531 -0.817072442
-0.194587731 0.226978165 -0.817072442
-0.264886307 0.138631588 -0.817072442
-0.297409356 0.030514712 -0.817072442
