# .PCD v.5 - Point Cloud Data file format
VERSION .5
FIELDS x y z
SIZE 4 4 4
TYPE F F F
COUNT 1 1 1
WIDTH 1308
HEIGHT 1
POINTS 1308
DATA ascii
0.886305452 0.218622913 0.45
0.853462228 0.323937585 0.45
0.808155187 0.424521527 0.45
0.751045987 0.518905829 0.45
0.682968639 0.60571212 0.45
0.604917334 0.683672694 0.45
0.51803192 0.751649029 0.45
0.423581256 0.808648411 0.45
0.322944685 0.85383843 0.45
0.217591884 0.886559138 0.45
0.109061409 0.906332689 0.45
-0.00106178 0.912870312 0.45
-0.111169463 0.906076533 0.45
-0.219653647 0.886050568 0.45
-0.324930046 0.853084872 0.45
-0.425461223 0.80766087 0.45
-0.519779036 0.750441928 0.45
-0.606506086 0.68226366 0.45
-0.684375824 0.60412173 0.45
-0.752251055 0.51715731 0.45
-0.809140541 0.422640413 0.45
-0.854213476 0.321951348 0.45
-0.886811624 0.216560561 0.45
-0.906458927 0.10800716 0.45
-0.912868459 -0.002123559 0.45
-0.905946617 -0.112223266 0.45
-0.885794484 -0.220684083 0.45
-0.852706361 -0.325922068 0.45
-0.807165461 -0.426400343 0.45
-0.749836854 -0.52065154 0.45
-0.681557758 -0.607299231 0.45
-0.603325309 -0.685078028 0.45
-0.516282001 -0.752852063 0.45
-0.421698998 -0.809631576 0.45
-0.320957576 -0.854587367 0.45
-0.215528944 -0.887062911 0.45
-0.106952765 -0.90658394 0.45
0.003185335 -0.912865372 0.45
0.113276916 -0.905815474 0.45
0.221714221 -0.885537203 0.45
0.326913649 -0.852326698 0.45
0.427338886 -0.806668959 0.45
0.52152334 -0.749230765 0.45
0.608091555 -0.680850934 0.45
0.685779306 -0.602528072 0.45
0.753452053 -0.515405993 0.45
0.810121515 -0.420757013 0.45
0.854960102 -0.31996337 0.45
0.887312997 -0.214497036 0.45
0.906707725 -0.105898225 0.45
0.947412111 0 0.394534032
0.940988867 0.110134741 0.394534032
0.92180623 0.218776103 0.394534032
0.890124308 0.324450958 0.394534032
0.846372695 0.425726402 0.394534032
0.791144643 0.521229184 0.394534032
0.725189019 0.60966433 0.394534032
0.649400154 0.689832696 0.394534032
0.564805709 0.760647237 0.394534032
0.472552749 0.821147738 0.394534032
0.373892184 0.870513839 0.394534032
0.270161805 0.908076157 0.394534032
0.162768152 0.933325365 0.394534032
0.053167435 0.945919094 0.394534032
-0.057154209 0.945686579 0.394534032
-0.166700867 0.932630972 0.394534032
-0.273987135 0.906929302 0.394534032
-0.377558259 0.868930072 0.394534032
-0.47600986 0.819148535 0.394534032
-0.568006978 0.758259706 0.394534032
-0.652302173 0.687089211 0.394534032
-0.727752439 0.606602091 0.394534032
-0.793334704 0.517889714 0.394534032
-0.848159701 0.422154983 0.394534032
-0.891484029 0.320696017 0.394534032
-0.922720227 0.214888554 0.394534032
-0.941444748 0.106167298 0.394534032
-0.947403694 -0.003993539 0.394534032
-0.940516266 -0.114100226 0.394534032
-0.920875854 -0.222659765 0.394534032
-0.888748772 -0.328200135 0.394534032
-0.84457065 -0.429290257 0.394534032
-0.788940525 -0.524559393 0.394534032
-0.722612715 -0.612715736 0.394534032
-0.646486596 -0.692563925 0.394534032
-0.561594405 -0.763021253 0.394534032
-0.469087243 -0.823132351 0.394534032
-0.370219465 -0.872082139 0.394534032
-0.266331675 -0.909206878 0.394534032
-0.158832545 -0.934003175 0.394534032
-0.049179717 -0.946134802 0.394534032
0.061139967 -0.94543726 0.394534032
0.17063062 -0.931920007 0.394534032
0.277807597 -0.905766332 0.394534032
0.381217626 -0.867330865 0.394534032
0.479458513 -0.817134777 0.394534032
0.571198154 -0.755858702 0.394534032
0.655192602 -0.684333517 0.394534032
0.730302927 -0.603529074 0.394534032
0.795510669 -0.514541043 0.394534032
0.849931637 -0.418576063 0.394534032
0.892827909 -0.316935377 0.394534032
0.92361783 -0.210997187 0.394534032
0.941883901 -0.102197969 0.394534032
0.977337597 0 0.337145934
0.971110603 0.110149781 0.337145934
0.952508972 0.218895948 0.337145934
0.921769739 0.324852775 0.337145934
0.879284608 0.426670079 0.337145934
0.825594956 0.523050424 0.337145934
0.761384939 0.612765659 0.337145934
0.68747277 0.694672562 0.337145934
0.604800294 0.767727414 0.337145934
0.514420988 0.830999293 0.337145934
0.417486534 0.88368194 0.337145934
0.315232146 0.925104033 0.337145934
0.208960828 0.954737739 0.337145934
0.10002677 0.972205443 0.337145934
-0.010181906 0.977284558 0.337145934
-0.120260836 0.969910361 0.337145934
-0.22880731 0.950176822 0.337145934
-0.334438146 0.918335399 0.337145934
-0.435807313 0.87479184 0.337145934
-0.531623089 0.820101012 0.337145934
-0.620664515 0.754959825 0.337145934
-0.701796956 0.680198361 0.337145934
-0.773986561 0.596769286 0.337145934
-0.836313435 0.505735718 0.337145934
-0.88798336 0.408257677 0.337145934
-0.928337918 0.305577303 0.337145934
-0.956862881 0.199003028 0.337145934
-0.973194762 0.089892903 0.337145934
-0.977125446 -0.020362706 0.337145934
-0.968604848 -0.130358838 0.337145934
-0.947741542 -0.238693838 0.337145934
-0.914801384 -0.343987217 0.337145934
-0.870204124 -0.444897246 0.337145934
-0.814518055 -0.540138053 0.337145934
-0.74845277 -0.628496006 0.337145934
-0.672850125 -0.708845179 0.337145934
-0.588673506 -0.780161702 0.337145934
-0.496995557 -0.841536805 0.337145934
-0.398984508 -0.892188399 0.337145934
-0.295889292 -0.931471043 0.337145934
-0.189023628 -0.958884167 0.337145934
-0.079749279 -0.974078452 0.337145934
0.030541297 -0.97686028 0.337145934
0.140442692 -0.967194204 0.337145934
0.248554458 -0.945203396 0.337145934
0.353498952 -0.911168079 0.337145934
0.453938891 -0.865521959 0.337145934
0.548594392 -0.808846692 0.337145934
0.636259281 -0.741864479 0.337145934
0.715816465 -0.665428859 0.337145934
0.786252166 -0.580513832 0.337145934
0.846668837 -0.488201453 0.337145934
0.896296603 -0.389668035 0.337145934
0.934503069 -0.286169167 0.337145934
0.960801378 -0.179023712 0.337145934
0.974856418 -0.069596999 0.337145934
1.002501592 0 0.278115295
0.996430583 0.1101614 0.278115295
0.978291088 0.218988556 0.278115295
0.948302807 0.325163385 0.278115295
0.90682895 0.427399926 0.278115295
0.854371836 0.52445992 0.278115295
0.791566811 0.615167803 0.278115295
0.719174552 0.698424946 0.278115295
0.638071853 0.773222964 0.278115295
0.549241007 0.838655923 0.278115295
0.45375791 0.893931318 0.278115295
0.352779024 0.938379668 0.278115295
0.247527378 0.971462628 0.278115295
0.139277751 0.992779507 0.278115295
0.02934123 1.00207212 0.278115295
-0.080950663 0.999227918 0.278115295
-0.190262105 0.984281348 0.278115295
-0.297269145 0.957413441 0.278115295
-0.400675746 0.918949611 0.278115295
-0.499229474 0.869355723 0.278115295
-0.591736676 0.809232443 0.278115295
-0.67707693 0.739307968 0.278115295
-0.754216619 0.660429203 0.278115295
-0.822221449 0.573551506 0.278115295
-0.880267765 0.479727114 0.278115295
-0.927652525 0.380092403 0.278115295
-0.963801819 0.275854119 0.278115295
-0.988277817 0.168274768 0.278115295
-1.000784073 0.058657321 0.278115295
-1.001169113 -0.051670567 0.278115295
-0.989428276 -0.161372636 0.278115295
-0.965703762 -0.269120205 0.278115295
-0.930282916 -0.373608266 0.278115295
-0.883594746 -0.473571289 0.278115295
-0.826204725 -0.56779855 0.278115295
-0.758807945 -0.655148795 0.278115295
-0.682220697 -0.734564062 0.278115295
-0.597370585 -0.805082496 0.278115295
-0.505285288 -0.865849998 0.278115295
-0.407080118 -0.916130569 0.278115295
-0.303944508 -0.955315224 0.278115295
-0.197127608 -0.982929371 0.278115295
-0.087923154 -0.998638553 0.278115295
0.0223462 -1.002252507 0.278115295
0.132344904 -0.993727461 0.278115295
0.240740683 -0.973166669 0.278115295
0.346220679 -0.940819155 0.278115295
0.447507348 -0.897076705 0.278115295
0.543373934 -0.842469115 0.278115295
0.632659328 -0.777657776 0.278115295
0.71428213 -0.703427665 0.278115295
0.787253748 -0.620677837 0.278115295
0.850690371 -0.530410533 0.278115295
0.903823672 -0.433719047 0.278115295
0.946010115 -0.331774477 0.278115295
0.97673875 -0.225811549 0.278115295
0.9956374 -0.117113655 0.278115295
1.002477171 -0.006997313 0.278115295
1.0227815 0 0.217729706
1.016830632 0.110170147 0.217729706
0.999047278 0.219058285 0.217729706
0.969638376 0.325397321 0.217729706
0.928946146 0.427949827 0.217729706
0.877444108 0.525522438 0.217729706
0.815731574 0.616979736 0.217729706
0.74452667 0.701257466 0.217729706
0.664657981 0.777374919 0.217729706
0.57705491 0.844446344 0.217729706
0.482736861 0.901691255 0.217729706
0.38280138 0.948443514 0.217729706
0.278411378 0.984159083 0.217729706
0.170781606 1.008422352 0.217729706
0.06116451 1.020950978 0.217729706
-0.049164335 1.02159917 0.217729706
-0.158921072 1.010359386 0.217729706
-0.266828503 0.987362419 0.217729706
-0.371630948 0.952875876 0.217729706
-0.47210886 0.907301064 0.217729706
-0.567093013 0.851168321 0.217729706
-0.655478112 0.785130843 0.217729706
-0.736235651 0.709957084 0.217729706
-0.808425885 0.626521814 0.217729706
-0.871208763 0.535795939 0.217729706
-0.923853702 0.438835202 0.217729706
-0.965748092 0.336767899 0.217729706
-0.996404425 0.230781752 0.217729706
-1.015465964 0.122110082 0.217729706
-1.022710896 0.012017461 0.217729706
-1.018054915 -0.098215002 0.217729706
-1.0015522 -0.207304574 0.217729706
-0.973394789 -0.313981817 0.217729706
-0.933910337 -0.417005369 0.217729706
-0.883558312 -0.515176382 0.217729706
-0.822924642 -0.607352476 0.217729706
-0.752714898 -0.69246103 0.217729706
-0.673746086 -0.769511668 0.217729706
-0.586937136 -0.83760778 0.217729706
-0.493298214 -0.895956957 0.217729706
-0.39391896 -0.943880209 0.217729706
-0.289955816 -0.980819872 0.217729706
-0.182618561 -1.006346092 0.217729706
-0.073156241 -1.020161831 0.217729706
0.037157372 -1.022106318 0.217729706
0.147038598 -1.012156928 0.217729706
0.255208789 -0.990429437 0.217729706
0.360409209 -0.957176681 0.217729706
0.461415679 -0.912785609 0.217729706
0.557052823 -0.857772784 0.217729706
0.646207746 -0.792778371 0.217729706
0.727842986 -0.718558685 0.217729706
0.801008583 -0.635977394 0.217729706
0.864853136 -0.545995467 0.217729706
0.918633708 -0.449659989 0.217729706
0.961724476 -0.348091983 0.217729706
0.993624007 -0.242473357 0.217729706
1.013961098 -0.134033158 0.217729706
1.022499095 -0.024033263 0.217729706
1.038078519 0 0.15628336
1.032215176 0.110176409 0.15628336
1.014691384 0.219108207 0.15628336
0.9857051 0.325564843 0.15628336
0.945583769 0.428343725 0.15628336
0.894780623 0.52628381 0.15628336
0.83386956 0.618278714 0.15628336
0.763538665 0.703289214 0.15628336
0.684582433 0.780354986 0.15628336
0.597892794 0.848605455 0.15628336
0.504449042 0.907269627 0.15628336
0.405306766 0.9556848 0.15628336
0.30158593 0.993304051 0.15628336
0.194458219 1.019702414 0.15628336
0.085133806 1.034581677 0.15628336
-0.025152325 1.037773758 0.15628336
-0.135154321 1.029242596 0.15628336
-0.243629542 1.009084564 0.15628336
-0.349352595 0.977527378 0.15628336
-0.451129176 0.934927525 0.15628336
-0.547809563 0.881766236 0.15628336
-0.638301603 0.818644047 0.15628336
-0.721583049 0.746274021 0.15628336
-0.796713111 0.665473689 0.15628336
-0.862843079 0.577155813 0.15628336
-0.919225915 0.482318079 0.15628336
-0.965224687 0.382031825 0.15628336
-1.00031977 0.277429936 0.15628336
-1.02411471 0.169694052 0.15628336
-1.036340709 0.060041214 0.15628336
-1.036859653 -0.050289881 0.15628336
-1.025665681 -0.160052875 0.15628336
-1.002885246 -0.268007827 0.15628336
-0.968775687 -0.372935221 0.15628336
-0.923722326 -0.473649741 0.15628336
-0.868234107 -0.569013662 0.15628336
-0.802937855 -0.657949703 0.15628336
-0.728571192 -0.739453196 0.15628336
-0.645974203 -0.812603434 0.15628336
-0.556079947 -0.876574072 0.15628336
-0.459903917 -0.930642466 0.15628336
-0.358532568 -0.974197828 0.15628336
-0.253111046 -1.006748136 0.15628336
-0.144830247 -1.027925684 0.15628336
-0.034913369 -1.037491238 0.15628336
0.075397909 -1.035336741 0.15628336
0.184857452 -1.021486531 0.15628336
0.292228747 -0.996097069 0.15628336
0.396298872 -0.959455166 0.15628336
0.495892195 -0.911974749 0.15628336
0.589883656 -0.854192182 0.15628336
0.677211479 -0.786760207 0.15628336
0.756889163 -0.710440572 0.15628336
0.828016625 -0.626095424 0.15628336
0.889790373 -0.53467757 0.15628336
0.941512577 -0.437219715 0.15628336
0.982598956 -0.334822795 0.15628336
1.012585376 -0.228643538 0.15628336
1.031133096 -0.119881403 0.15628336
1.038032589 -0.009765024 0.15628336
1.048318124 0 0.094075617
1.042511946 0.110180448 0.094075617
1.025157728 0.219140414 0.094075617
0.996447706 0.325672933 0.094075617
0.956699903 0.42859793 0.094075617
0.906354611 0.526775292 0.094075617
0.845969512 0.619117497 0.094075617
0.776213498 0.704601656 0.094075617
0.697859268 0.782280852 0.094075617
0.611774759 0.851294622 0.094075617
0.518913543 0.91087849 0.094075617
0.420304254 0.96037244 0.094075617
0.3170392 0.99922822 0.094075617
0.210262262 1.027015419 0.094075617
0.101156222 1.043426235 0.094075617
-0.009070339 1.048278884 0.094075617
-0.119196427 1.041519612 0.094075617
-0.22800216 1.023223292 0.094075617
-0.334282284 0.993592595 0.094075617
-0.43685952 0.952955744 0.094075617
-0.534597606 0.901762879 0.094075617
-0.626413885 0.840581069 0.094075617
-0.711291297 0.770088034 0.094075617
-0.788289642 0.691064635 0.094075617
-0.856556001 0.604386222 0.094075617
-0.915334179 0.511012946 0.094075617
-0.963973081 0.411979112 0.094075617
-1.001933928 0.308381733 0.094075617
-1.028796223 0.201368369 0.094075617
-1.04426241 0.092124422 0.094075617
-1.048161166 -0.018139999 0.094075617
-1.040449305 -0.128203482 0.094075617
-1.021212253 -0.236846837 0.094075617
-0.9906631 -0.34286661 0.094075617
-0.949140243 -0.445088405 0.094075617
-0.897103637 -0.542379897 0.094075617
-0.835129698 -0.633663378 0.094075617
-0.763904919 -0.717927687 0.094075617
-0.684218266 -0.794239418 0.094075617
-0.596952439 -0.861753256 0.094075617
-0.503074093 -0.919721342 0.094075617
-0.403623129 -0.967501555 0.094075617
-0.29970118 -1.004564628 0.094075617
-0.192459402 -1.030500009 0.094075617
-0.083085726 -1.045020407 0.094075617
0.027208301 -1.047964979 0.094075617
0.137200939 -1.039301107 0.094075617
0.245673783 -1.019124762 0.094075617
0.351425268 -0.987659441 0.094075617
0.453283969 -0.945253687 0.094075617
0.550121585 -0.892377236 0.094075617
0.640865433 -0.829615807 0.094075617
0.724510331 -0.757664615 0.094075617
0.800129735 -0.677320675 0.094075617
0.866885997 -0.589473966 0.094075617
0.924039652 -0.495097578 0.094075617
0.970957599 -0.395236929 0.094075617
1.007120123 -0.29099819 0.094075617
1.032126648 -0.183536026 0.094075617
1.045700171 -0.074040809 0.094075617
1.053450429 0 0.031409547
1.047672486 0.110182429 0.031409547
1.03040204 0.219156205 0.031409547
1.001828539 0.325725935 0.031409547
0.962265422 0.428722596 0.031409547
0.912146679 0.527016359 0.031409547
0.85202209 0.619528986 0.031409547
0.782551196 0.705245653 0.031409547
0.704496061 0.783226088 0.031409547
0.618712916 0.85261488 0.031409547
0.526142764 0.912650863 0.031409547
0.427801059 0.962675469 0.031409547
0.324766565 1.002139952 0.031409547
0.218169526 1.030611403 0.031409547
0.109179264 1.047777502 0.031409547
-0.001008647 1.053449946 0.031409547
-0.111185493 1.047566509 0.031409547
-0.220142684 1.030191732 0.031409547
-0.326685007 1.001516207 0.031409547
-0.429643739 0.961854492 0.031409547
-0.52788947 0.911641658 0.031409547
-0.620344487 0.851428519 0.031409547
-0.705994599 0.781875586 0.031409547
-0.783900263 0.703745823 0.031409547
-0.853206888 0.61789628 0.031409547
-0.91315421 0.525268688 0.031409547
-0.963084635 0.42687913 0.031409547
-1.002450447 0.323806898 0.031409547
-1.030819821 0.217182647 0.031409547
-1.047881558 0.108175998 0.031409547
-1.053448497 -0.002017293 0.031409547
-1.047459573 -0.112188456 0.031409547
-1.02998048 -0.22112896 0.031409547
-1.001202957 -0.327643778 0.031409547
-0.96144268 -0.430564489 0.031409547
-0.911135802 -0.528762098 0.031409547
-0.850834168 -0.62115942 0.031409547
-0.781199259 -0.706742898 0.031409547
-0.702994939 -0.784573719 0.031409547
-0.617079077 -0.853798114 0.031409547
-0.524394129 -0.913656721 0.031409547
-0.42595681 -0.963492917 0.031409547
-0.322846933 -1.002760023 0.031409547
-0.216195568 -1.031027294 0.031409547
-0.107172634 -1.047984653 0.031409547
0.003025937 -1.053446083 0.031409547
0.113191315 -1.047351675 0.031409547
0.222115034 -1.029768283 0.031409547
0.32860225 -1.000888789 0.031409547
0.431484844 -0.961029987 0.031409547
0.52963424 -0.910629111 0.031409547
0.621973783 -0.850239036 0.031409547
0.707490549 -0.780522216 0.031409547
0.785246456 -0.702243412 0.031409547
0.854388557 -0.616261308 0.031409547
0.914158393 -0.52351909 0.031409547
0.963900316 -0.4250341 0.031409547
1.003068679 -0.321886673 0.031409547
1.031233823 -0.215208292 0.031409547
1.048086787 -0.106169171 0.031409547
1.053450429 0 -0.031409547
1.047672486 0.110182429 -0.031409547
1.03040204 0.219156205 -0.031409547
1.001828539 0.325725935 -0.031409547
0.962265422 0.428722596 -0.031409547
0.912146679 0.527016359 -0.031409547
0.85202209 0.619528986 -0.031409547
0.782551196 0.705245653 -0.031409547
0.704496061 0.783226088 -0.031409547
0.618712916 0.85261488 -0.031409547
0.526142764 0.912650863 -0.031409547
0.427801059 0.962675469 -0.031409547
0.324766565 1.002139952 -0.031409547
0.218169526 1.030611403 -0.031409547
0.109179264 1.047777502 -0.031409547
-0.001008647 1.053449946 -0.031409547
-0.111185493 1.047566509 -0.031409547
-0.220142684 1.030191732 -0.031409547
-0.326685007 1.001516207 -0.031409547
-0.429643739 0.961854492 -0.031409547
-0.52788947 0.911641658 -0.031409547
-0.620344487 0.851428519 -0.031409547
-0.705994599 0.781875586 -0.031409547
-0.783900263 0.703745823 -0.031409547
-0.853206888 0.61789628 -0.031409547
-0.91315421 0.525268688 -0.031409547
-0.963084635 0.42687913 -0.031409547
-1.002450447 0.323806898 -0.031409547
-1.030819821 0.217182647 -0.031409547
-1.047881558 0.108175998 -0.031409547
-1.053448497 -0.002017293 -0.031409547
-1.047459573 -0.112188456 -0.031409547
-1.02998048 -0.22112896 -0.031409547
-1.001202957 -0.327643778 -0.031409547
-0.96144268 -0.430564489 -0.031409547
-0.911135802 -0.528762098 -0.031409547
-0.850834168 -0.62115942 -0.031409547
-0.781199259 -0.706742898 -0.031409547
-0.702994939 -0.784573719 -0.031409547
-0.617079077 -0.853798114 -0.031409547
-0.524394129 -0.913656721 -0.031409547
-0.42595681 -0.963492917 -0.031409547
-0.322846933 -1.002760023 -0.031409547
-0.216195568 -1.031027294 -0.031409547
-0.107172634 -1.047984653 -0.031409547
0.003025937 -1.053446083 -0.031409547
0.113191315 -1.047351675 -0.031409547
0.222115034 -1.029768283 -0.031409547
0.32860225 -1.000888789 -0.031409547
0.431484844 -0.961029987 -0.031409547
0.52963424 -0.910629111 -0.031409547
0.621973783 -0.850239036 -0.031409547
0.707490549 -0.780522216 -0.031409547
0.785246456 -0.702243412 -0.031409547
0.854388557 -0.616261308 -0.031409547
0.914158393 -0.52351909 -0.031409547
0.963900316 -0.4250341 -0.031409547
1.003068679 -0.321886673 -0.031409547
1.031233823 -0.215208292 -0.031409547
1.048086787 -0.106169171 -0.031409547
1.048318124 0 -0.094075617
1.042511946 0.110180448 -0.094075617
1.025157728 0.219140414 -0.094075617
0.996447706 0.325672933 -0.094075617
0.956699903 0.42859793 -0.094075617
0.906354611 0.526775292 -0.094075617
0.845969512 0.619117497 -0.094075617
0.776213498 0.704601656 -0.094075617
0.697859268 0.782280852 -0.094075617
0.611774759 0.851294622 -0.094075617
0.518913543 0.91087849 -0.094075617
0.420304254 0.96037244 -0.094075617
0.3170392 0.99922822 -0.094075617
0.210262262 1.027015419 -0.094075617
0.101156222 1.043426235 -0.094075617
-0.009070339 1.048278884 -0.094075617
-0.119196427 1.041519612 -0.094075617
-0.22800216 1.023223292 -0.094075617
-0.334282284 0.993592595 -0.094075617
-0.43685952 0.952955744 -0.094075617
-0.534597606 0.901762879 -0.094075617
-0.626413885 0.840581069 -0.094075617
-0.711291297 0.770088034 -0.094075617
-0.788289642 0.691064635 -0.094075617
-0.856556001 0.604386222 -0.094075617
-0.915334179 0.511012946 -0.094075617
-0.963973081 0.411979112 -0.094075617
-1.001933928 0.308381733 -0.094075617
-1.028796223 0.201368369 -0.094075617
-1.04426241 0.092124422 -0.094075617
-1.048161166 -0.018139999 -0.094075617
-1.040449305 -0.128203482 -0.094075617
-1.021212253 -0.236846837 -0.094075617
-0.9906631 -0.34286661 -0.094075617
-0.949140243 -0.445088405 -0.094075617
-0.897103637 -0.542379897 -0.094075617
-0.835129698 -0.633663378 -0.094075617
-0.763904919 -0.717927687 -0.094075617
-0.684218266 -0.794239418 -0.094075617
-0.596952439 -0.861753256 -0.094075617
-0.503074093 -0.919721342 -0.094075617
-0.403623129 -0.967501555 -0.094075617
-0.29970118 -1.004564628 -0.094075617
-0.192459402 -1.030500009 -0.094075617
-0.083085726 -1.045020407 -0.094075617
0.027208301 -1.047964979 -0.094075617
0.137200939 -1.039301107 -0.094075617
0.245673783 -1.019124762 -0.094075617
0.351425268 -0.987659441 -0.094075617
0.453283969 -0.945253687 -0.094075617
0.550121585 -0.892377236 -0.094075617
0.640865433 -0.829615807 -0.094075617
0.724510331 -0.757664615 -0.094075617
0.800129735 -0.677320675 -0.094075617
0.866885997 -0.589473966 -0.094075617
0.924039652 -0.495097578 -0.094075617
0.970957599 -0.395236929 -0.094075617
1.007120123 -0.29099819 -0.094075617
1.032126648 -0.183536026 -0.094075617
1.045700171 -0.074040809 -0.094075617
1.038078519 0 -0.15628336
1.032215176 0.110176409 -0.15628336
1.014691384 0.219108207 -0.15628336
0.9857051 0.325564843 -0.15628336
0.945583769 0.428343725 -0.15628336
0.894780623 0.52628381 -0.15628336
0.83386956 0.618278714 -0.15628336
0.763538665 0.703289214 -0.15628336
0.684582433 0.780354986 -0.15628336
0.597892794 0.848605455 -0.15628336
0.504449042 0.907269627 -0.15628336
0.405306766 0.9556848 -0.15628336
0.30158593 0.993304051 -0.15628336
0.194458219 1.019702414 -0.15628336
0.085133806 1.034581677 -0.15628336
-0.025152325 1.037773758 -0.15628336
-0.135154321 1.029242596 -0.15628336
-0.243629542 1.009084564 -0.15628336
-0.349352595 0.977527378 -0.15628336
-0.451129176 0.934927525 -0.15628336
-0.547809563 0.881766236 -0.15628336
-0.638301603 0.818644047 -0.15628336
-0.721583049 0.746274021 -0.15628336
-0.796713111 0.665473689 -0.15628336
-0.862843079 0.577155813 -0.15628336
-0.919225915 0.482318079 -0.15628336
-0.965224687 0.382031825 -0.15628336
-1.00031977 0.277429936 -0.15628336
-1.02411471 0.169694052 -0.15628336
-1.036340709 0.060041214 -0.15628336
-1.036859653 -0.050289881 -0.15628336
-1.025665681 -0.160052875 -0.15628336
-1.002885246 -0.268007827 -0.15628336
-0.968775687 -0.372935221 -0.15628336
-0.923722326 -0.473649741 -0.15628336
-0.868234107 -0.569013662 -0.15628336
-0.802937855 -0.657949703 -0.15628336
-0.728571192 -0.739453196 -0.15628336
-0.645974203 -0.812603434 -0.15628336
-0.556079947 -0.876574072 -0.15628336
-0.459903917 -0.930642466 -0.15628336
-0.358532568 -0.974197828 -0.15628336
-0.253111046 -1.006748136 -0.15628336
-0.144830247 -1.027925684 -0.15628336
-0.034913369 -1.037491238 -0.15628336
0.075397909 -1.035336741 -0.15628336
0.184857452 -1.021486531 -0.15628336
0.292228747 -0.996097069 -0.15628336
0.396298872 -0.959455166 -0.15628336
0.495892195 -0.911974749 -0.15628336
0.589883656 -0.854192182 -0.15628336
0.677211479 -0.786760207 -0.15628336
0.756889163 -0.710440572 -0.15628336
0.828016625 -0.626095424 -0.15628336
0.889790373 -0.53467757 -0.15628336
0.941512577 -0.437219715 -0.15628336
0.982598956 -0.334822795 -0.15628336
1.012585376 -0.228643538 -0.15628336
1.031133096 -0.119881403 -0.15628336
1.038032589 -0.009765024 -0.15628336
1.0227815 0 -0.217729706
1.016830632 0.110170147 -0.217729706
0.999047278 0.219058285 -0.217729706
0.969638376 0.325397321 -0.217729706
0.928946146 0.427949827 -0.217729706
0.877444108 0.525522438 -0.217729706
0.815731574 0.616979736 -0.217729706
0.74452667 0.701257466 -0.217729706
0.664657981 0.777374919 -0.217729706
0.57705491 0.844446344 -0.217729706
0.482736861 0.901691255 -0.217729706
0.38280138 0.948443514 -0.217729706
0.278411378 0.984159083 -0.217729706
0.170781606 1.008422352 -0.217729706
0.06116451 1.020950978 -0.217729706
-0.049164335 1.02159917 -0.217729706
-0.158921072 1.010359386 -0.217729706
-0.266828503 0.987362419 -0.217729706
-0.371630948 0.952875876 -0.217729706
-0.47210886 0.907301064 -0.217729706
-0.567093013 0.851168321 -0.217729706
-0.655478112 0.785130843 -0.217729706
-0.736235651 0.709957084 -0.217729706
-0.808425885 0.626521814 -0.217729706
-0.871208763 0.535795939 -0.217729706
-0.923853702 0.438835202 -0.217729706
-0.965748092 0.336767899 -0.217729706
-0.996404425 0.230781752 -0.217729706
-1.015465964 0.122110082 -0.217729706
-1.022710896 0.012017461 -0.217729706
-1.018054915 -0.098215002 -0.217729706
-1.0015522 -0.207304574 -0.217729706
-0.973394789 -0.313981817 -0.217729706
-0.933910337 -0.417005369 -0.217729706
-0.883558312 -0.515176382 -0.217729706
-0.822924642 -0.607352476 -0.217729706
-0.752714898 -0.69246103 -0.217729706
-0.673746086 -0.769511668 -0.217729706
-0.586937136 -0.83760778 -0.217729706
-0.493298214 -0.895956957 -0.217729706
-0.39391896 -0.943880209 -0.217729706
-0.289955816 -0.980819872 -0.217729706
-0.182618561 -1.006346092 -0.217729706
-0.073156241 -1.020161831 -0.217729706
0.037157372 -1.022106318 -0.217729706
0.147038598 -1.012156928 -0.217729706
0.255208789 -0.990429437 -0.217729706
0.360409209 -0.957176681 -0.217729706
0.461415679 -0.912785609 -0.217729706
0.557052823 -0.857772784 -0.217729706
0.646207746 -0.792778371 -0.217729706
0.727842986 -0.718558685 -0.217729706
0.801008583 -0.635977394 -0.217729706
0.864853136 -0.545995467 -0.217729706
0.918633708 -0.449659989 -0.217729706
0.961724476 -0.348091983 -0.217729706
0.993624007 -0.242473357 -0.217729706
1.013961098 -0.134033158 -0.217729706
1.022499095 -0.024033263 -0.217729706
1.002501592 0 -0.278115295
0.996430583 0.1101614 -0.278115295
0.978291088 0.218988556 -0.278115295
0.948302807 0.325163385 -0.278115295
0.90682895 0.427399926 -0.278115295
0.854371836 0.52445992 -0.278115295
0.791566811 0.615167803 -0.278115295
0.719174552 0.698424946 -0.278115295
0.638071853 0.773222964 -0.278115295
0.549241007 0.838655923 -0.278115295
0.45375791 0.893931318 -0.278115295
0.352779024 0.938379668 -0.278115295
0.247527378 0.971462628 -0.278115295
0.139277751 0.992779507 -0.278115295
0.02934123 1.00207212 -0.278115295
-0.080950663 0.999227918 -0.278115295
-0.190262105 0.984281348 -0.278115295
-0.297269145 0.957413441 -0.278115295
-0.400675746 0.918949611 -0.278115295
-0.499229474 0.869355723 -0.278115295
-0.591736676 0.809232443 -0.278115295
-0.67707693 0.739307968 -0.278115295
-0.754216619 0.660429203 -0.278115295
-0.822221449 0.573551506 -0.278115295
-0.880267765 0.479727114 -0.278115295
-0.927652525 0.380092403 -0.278115295
-0.963801819 0.275854119 -0.278115295
-0.988277817 0.168274768 -0.278115295
-1.000784073 0.058657321 -0.278115295
-1.001169113 -0.051670567 -0.278115295
-0.989428276 -0.161372636 -0.278115295
-0.965703762 -0.269120205 -0.278115295
-0.930282916 -0.373608266 -0.278115295
-0.883594746 -0.473571289 -0.278115295
-0.826204725 -0.56779855 -0.278115295
-0.758807945 -0.655148795 -0.278115295
-0.682220697 -0.734564062 -0.278115295
-0.597370585 -0.805082496 -0.278115295
-0.505285288 -0.865849998 -0.278115295
-0.407080118 -0.916130569 -0.278115295
-0.303944508 -0.955315224 -0.278115295
-0.197127608 -0.982929371 -0.278115295
-0.087923154 -0.998638553 -0.278115295
0.0223462 -1.002252507 -0.278115295
0.132344904 -0.993727461 -0.278115295
0.240740683 -0.973166669 -0.278115295
0.346220679 -0.940819155 -0.278115295
0.447507348 -0.897076705 -0.278115295
0.543373934 -0.842469115 -0.278115295
0.632659328 -0.777657776 -0.278115295
0.71428213 -0.703427665 -0.278115295
0.787253748 -0.620677837 -0.278115295
0.850690371 -0.530410533 -0.278115295
0.903823672 -0.433719047 -0.278115295
0.946010115 -0.331774477 -0.278115295
0.97673875 -0.225811549 -0.278115295
0.9956374 -0.117113655 -0.278115295
1.002477171 -0.006997313 -0.278115295
0.977337597 0 -0.337145934
0.971110603 0.110149781 -0.337145934
0.952508972 0.218895948 -0.337145934
0.921769739 0.324852775 -0.337145934
0.879284608 0.426670079 -0.337145934
0.825594956 0.523050424 -0.337145934
0.761384939 0.612765659 -0.337145934
0.68747277 0.694672562 -0.337145934
0.604800294 0.767727414 -0.337145934
0.514420988 0.830999293 -0.337145934
0.417486534 0.88368194 -0.337145934
0.315232146 0.925104033 -0.337145934
0.208960828 0.954737739 -0.337145934
0.10002677 0.972205443 -0.337145934
-0.010181906 0.977284558 -0.337145934
-0.120260836 0.969910361 -0.337145934
-0.22880731 0.950176822 -0.337145934
-0.334438146 0.918335399 -0.337145934
-0.435807313 0.87479184 -0.337145934
-0.531623089 0.820101012 -0.337145934
-0.620664515 0.754959825 -0.337145934
-0.701796956 0.680198361 -0.337145934
-0.773986561 0.596769286 -0.337145934
-0.836313435 0.505735718 -0.337145934
-0.88798336 0.408257677 -0.337145934
-0.928337918 0.305577303 -0.337145934
-0.956862881 0.199003028 -0.337145934
-0.973194762 0.089892903 -0.337145934
-0.977125446 -0.020362706 -0.337145934
-0.968604848 -0.130358838 -0.337145934
-0.947741542 -0.238693838 -0.337145934
-0.914801384 -0.343987217 -0.337145934
-0.870204124 -0.444897246 -0.337145934
-0.814518055 -0.540138053 -0.337145934
-0.74845277 -0.628496006 -0.337145934
-0.672850125 -0.708845179 -0.337145934
-0.588673506 -0.780161702 -0.337145934
-0.496995557 -0.841536805 -0.337145934
-0.398984508 -0.892188399 -0.337145934
-0.295889292 -0.931471043 -0.337145934
-0.189023628 -0.958884167 -0.337145934
-0.079749279 -0.974078452 -0.337145934
0.030541297 -0.97686028 -0.337145934
0.140442692 -0.967194204 -0.337145934
0.248554458 -0.945203396 -0.337145934
0.353498952 -0.911168079 -0.337145934
0.453938891 -0.865521959 -0.337145934
0.548594392 -0.808846692 -0.337145934
0.636259281 -0.741864479 -0.337145934
0.715816465 -0.665428859 -0.337145934
0.786252166 -0.580513832 -0.337145934
0.846668837 -0.488201453 -0.337145934
0.896296603 -0.389668035 -0.337145934
0.934503069 -0.286169167 -0.337145934
0.960801378 -0.179023712 -0.337145934
0.974856418 -0.069596999 -0.337145934
0.947412111 0 -0.394534032
0.940988867 0.110134741 -0.394534032
0.92180623 0.218776103 -0.394534032
0.890124308 0.324450958 -0.394534032
0.846372695 0.425726402 -0.394534032
0.791144643 0.521229184 -0.394534032
0.725189019 0.60966433 -0.394534032
0.649400154 0.689832696 -0.394534032
0.564805709 0.760647237 -0.394534032
0.472552749 0.821147738 -0.394534032
0.373892184 0.870513839 -0.394534032
0.270161805 0.908076157 -0.394534032
0.162768152 0.933325365 -0.394534032
0.053167435 0.945919094 -0.394534032
-0.057154209 0.945686579 -0.394534032
-0.166700867 0.932630972 -0.394534032
-0.273987135 0.906929302 -0.394534032
-0.377558259 0.868930072 -0.394534032
-0.47600986 0.819148535 -0.394534032
-0.568006978 0.758259706 -0.394534032
-0.652302173 0.687089211 -0.394534032
-0.727752439 0.606602091 -0.394534032
-0.793334704 0.517889714 -0.394534032
-0.848159701 0.422154983 -0.394534032
-0.891484029 0.320696017 -0.394534032
-0.922720227 0.214888554 -0.394534032
-0.941444748 0.106167298 -0.394534032
-0.947403694 -0.003993539 -0.394534032
-0.940516266 -0.114100226 -0.394534032
-0.920875854 -0.222659765 -0.394534032
-0.888748772 -0.328200135 -0.394534032
-0.84457065 -0.429290257 -0.394534032
-0.788940525 -0.524559393 -0.394534032
-0.722612715 -0.612715736 -0.394534032
-0.646486596 -0.692563925 -0.394534032
-0.561594405 -0.763021253 -0.394534032
-0.469087243 -0.823132351 -0.394534032
-0.370219465 -0.872082139 -0.394534032
-0.266331675 -0.909206878 -0.394534032
-0.158832545 -0.934003175 -0.394534032
-0.049179717 -0.946134802 -0.394534032
0.061139967 -0.94543726 -0.394534032
0.17063062 -0.931920007 -0.394534032
0.277807597 -0.905766332 -0.394534032
0.381217626 -0.867330865 -0.394534032
0.479458513 -0.817134777 -0.394534032
0.571198154 -0.755858702 -0.394534032
0.655192602 -0.684333517 -0.394534032
0.730302927 -0.603529074 -0.394534032
0.795510669 -0.514541043 -0.394534032
0.849931637 -0.418576063 -0.394534032
0.892827909 -0.316935377 -0.394534032
0.92361783 -0.210997187 -0.394534032
0.941883901 -0.102197969 -0.394534032
0.912870929 0 -0.45
0.906205224 0.110115511 -0.45
0.886305452 0.218622913 -0.45
0.853462228 0.323937585 -0.45
0.808155187 0.424521527 -0.45
0.751045987 0.518905829 -0.45
0.682968639 0.60571212 -0.45
0.604917334 0.683672694 -0.45
0.51803192 0.751649029 -0.45
0.423581256 0.808648411 -0.45
0.322944685 0.85383843 -0.45
0.217591884 0.886559138 -0.45
0.109061409 0.906332689 -0.45
-0.00106178 0.912870312 -0.45
-0.111169463 0.906076533 -0.45
-0.219653647 0.886050568 -0.45
-0.324930046 0.853084872 -0.45
-0.425461223 0.80766087 -0.45
-0.519779036 0.750441928 -0.45
-0.606506086 0.68226366 -0.45
-0.684375824 0.60412173 -0.45
-0.752251055 0.51715731 -0.45
-0.809140541 0.422640413 -0.45
-0.854213476 0.321951348 -0.45
-0.886811624 0.216560561 -0.45
-0.906458927 0.10800716 -0.45
-0.912868459 -0.002123559 -0.45
-0.905946617 -0.112223266 -0.45
-0.885794484 -0.220684083 -0.45
-0.852706361 -0.325922068 -0.45
-0.807165461 -0.426400343 -0.45
-0.749836854 -0.52065154 -0.45
-0.681557758 -0.607299231 -0.45
-0.603325309 -0.685078028 -0.45
-0.516282001 -0.752852063 -0.45
-0.421698998 -0.809631576 -0.45
-0.320957576 -0.854587367 -0.45
-0.215528944 -0.887062911 -0.45
-0.106952765 -0.90658394 -0.45
0.003185335 -0.912865372 -0.45
0.113276916 -0.905815474 -0.45
0.221714221 -0.885537203 -0.45
0.326913649 -0.852326698 -0.45
0.427338886 -0.806668959 -0.45
0.52152334 -0.749230765 -0.45
0.608091555 -0.680850934 -0.45
0.685779306 -0.602528072 -0.45
0.753452053 -0.515405993 -0.45
0.810121515 -0.420757013 -0.45
0.854960102 -0.31996337 -0.45
0.887312997 -0.214497036 -0.45
0.906707725 -0.105898225 -0.45
0.873882332 0 -0.503273613
0.866920007 0.11009101 -0.503273613
0.846143974 0.218427803 -0.503273613
0.811885281 0.323284116 -0.503273613
0.764689816 0.422989143 -0.503273613
0.705309601 0.515954161 -0.503273613
0.634690816 0.600697842 -0.503273613
0.553958716 0.675869862 -0.503273613
0.464399707 0.74027241 -0.503273613
0.367440843 0.792879283 -0.503273613
0.264627089 0.832852228 -0.503273613
0.157596704 0.859554308 -0.503273613
0.048055136 0.872560046 -0.503273613
-0.062252155 0.871662205 -0.503273613
-0.171567504 0.856875091 -0.503273613
-0.278149056 0.828434326 -0.503273613
-0.380298516 0.786793091 -0.503273613
-0.476388208 0.732614909 -0.503273613
-0.564887017 0.666763067 -0.503273613
-0.644384783 0.590286864 -0.503273613
-0.713614768 0.504404889 -0.503273613
-0.771473846 0.410485608 -0.503273613
-0.817040077 0.310025551 -0.503273613
-0.849587397 0.204625474 -0.503273613
-0.86859719 0.095964845 -0.503273613
-0.873766549 -0.01422491 -0.503273613
-0.865013104 -0.124188002 -0.503273613
-0.842476335 -0.232172253 -0.503273613
-0.806515348 -0.336457016 -0.503273613
-0.757703154 -0.435380593 -0.503273613
-0.696817538 -0.527366712 -0.503273613
-0.624828665 -0.610949645 -0.503273613
-0.542883625 -0.684797561 -0.503273613
-0.452288148 -0.74773375 -0.503273613
-0.354485804 -0.798755372 -0.503273613
-0.251034999 -0.837049436 -0.503273613
-0.143584143 -0.862005756 -0.503273613
-0.033845383 -0.873226671 -0.503273613
0.076432678 -0.870533386 -0.503273613
0.185492842 -0.853968814 -0.503273613
0.291597319 -0.823796901 -0.503273613
0.393055415 -0.780498412 -0.503273613
0.488250472 -0.724763276 -0.503273613
0.575665631 -0.65747959 -0.503273613
0.653907997 -0.579719468 -0.503273613
0.721730837 -0.492721958 -0.503273613
0.778053447 -0.3978733 -0.503273613
0.821978369 -0.296684834 -0.503273613
0.852805692 -0.190768921 -0.503273613
0.870044207 -0.081813251 -0.503273613
0.830636267 0 -0.554095328
0.823312499 0.110059701 -0.554095328
0.801470342 0.218178597 -0.554095328
0.765494963 0.322450106 -0.554095328
0.716020756 0.421035492 -0.554095328
0.653920156 0.512196289 -0.554095328
0.580288251 0.594324956 -0.554095328
0.496423476 0.665973229 -0.554095328
0.403804711 0.725877651 -0.554095328
0.304065207 0.772981862 -0.554095328
0.198963781 0.80645522 -0.554095328
0.090353804 0.825707453 -0.554095328
-0.019849481 0.830399065 -0.554095328
-0.129702739 0.820447322 -0.554095328
-0.237268804 0.796027715 -0.554095328
-0.340650843 0.757570863 -0.554095328
-0.438025805 0.705754917 -0.554095328
-0.527676568 0.641493607 -0.554095328
-0.608022222 0.565920124 -0.554095328
-0.677645941 0.480367139 -0.554095328
-0.735319972 0.386343303 -0.554095328
-0.780027284 0.285506645 -0.554095328
-0.810979505 0.17963533 -0.554095328
-0.827630818 0.070596303 -0.554095328
-0.829687592 -0.039687626 -0.554095328
-0.817113559 -0.149271699 -0.554095328
-0.79013045 -0.256223498 -0.554095328
-0.749214088 -0.358657022 -0.554095328
-0.695085997 -0.454765946 -0.554095328
-0.628700679 -0.542855474 -0.554095328
-0.551228779 -0.621372225 -0.554095328
-0.464036447 -0.688931626 -0.554095328
-0.368661242 -0.744342326 -0.554095328
-0.266785021 -0.786627206 -0.554095328
-0.160204282 -0.81504061 -0.554095328
-0.050798482 -0.829081493 -0.554095328
0.059503104 -0.828502257 -0.554095328
0.168755405 -0.813313114 -0.554095328
0.275031854 -0.783781913 -0.554095328
0.37645836 -0.740429411 -0.554095328
0.471246354 -0.684020089 -0.554095328
0.557724335 -0.615548678 -0.554095328
0.63436734 -0.536222609 -0.554095328
0.699823838 -0.447440728 -0.554095328
0.75293956 -0.350768625 -0.554095328
0.792777858 -0.247911027 -0.554095328
0.818636218 -0.140681737 -0.554095328
0.830058652 -0.030971649 -0.554095328
0.783343427 0 -0.602217546
0.775578922 0.110019362 -0.602217546
0.752439331 0.2178577 -0.602217546
0.714383373 0.321377223 -0.602217546
0.662165471 0.418525761 -0.602217546
0.596820793 0.507377439 -0.602217546
0.519644732 0.58617086 -0.602217546
0.432167227 0.653344023 -0.602217546
0.336122434 0.707565286 -0.602217546
0.233414345 0.747759766 -0.602217546
0.126079048 0.773130647 -0.602217546
0.016244358 0.783174977 -0.602217546
-0.09391236 0.777693637 -0.602217546
-0.202207359 0.756795288 -0.602217546
-0.306493796 0.72089422 -0.602217546
-0.404704296 0.670702137 -0.602217546
-0.494891934 0.607214046 -0.602217546
-0.575268828 0.531688536 -0.602217546
-0.644241585 0.445622827 -0.602217546
-0.70044289 0.350723085 -0.602217546
-0.742758606 0.248870604 -0.602217546
-0.770349866 0.142084509 -0.602217546
-0.782669701 0.03248173 -0.602217546
-0.779473883 -0.077764968 -0.602217546
-0.760825764 -0.186470053 -0.602217546
-0.727095027 -0.291478552 -0.602217546
-0.678950348 -0.390708777 -0.602217546
-0.61734615 -0.482193587 -0.602217546
-0.543503674 -0.564119385 -0.602217546
-0.458886774 -0.634862074 -0.602217546
-0.365172898 -0.693019249 -0.602217546
-0.264219829 -0.737438001 -0.602217546
-0.158028863 -0.767237774 -0.602217546
-0.048705132 -0.781827816 -0.602217546
0.061584131 -0.780918894 -0.602217546
0.17065255 -0.764529026 -0.602217546
0.27633795 -0.732983125 -0.602217546
0.376545223 -0.686906558 -0.602217546
0.469287859 -0.627212746 -0.602217546
0.552727327 -0.555085062 -0.602217546
0.625209522 -0.471953364 -0.602217546
0.685297555 -0.379465658 -0.602217546
0.731800241 -0.279455419 -0.602217546
0.76379571 -0.173905253 -0.602217546
0.780649684 -0.064907586 -0.602217546
0.732234215 0 -0.64740582
0.723929742 0.109966698 -0.64740582
0.699204689 0.21743907 -0.64740582
0.658619884 0.319979366 -0.64740582
0.603095893 0.415261712 -0.64740582
0.533892144 0.501124859 -0.64740582
0.452578354 0.575621212 -0.64740582
0.360998929 0.637061001 -0.64740582
0.261231124 0.684050617 -0.64740582
0.155537928 0.715524213 -0.64740582
0.046316734 0.730767888 -0.64740582
-0.063955043 0.729435877 -0.64740582
-0.172776155 0.711558393 -0.64740582
-0.277678262 0.677540943 -0.64740582
-0.376281915 0.62815513 -0.64740582
-0.466350531 0.56452115 -0.64740582
-0.545841123 0.488082386 -0.64740582
-0.612950641 0.400572663 -0.64740582
-0.666156869 0.303976927 -0.64740582
-0.704252954 0.200486216 -0.64740582
-0.726374779 0.092447965 -0.64740582
-0.732020565 -0.017687243 -0.64740582
-0.72106225 -0.127421259 -0.64740582
-0.693748398 -0.234265035 -0.64740582
-0.650698556 -0.335795079 -0.64740582
-0.592889205 -0.429708432 -0.64740582
-0.521631609 -0.513874898 -0.64740582
-0.438542073 -0.586385365 -0.64740582
-0.34550528 -0.645595112 -0.64740582
-0.244631542 -0.690161108 -0.64740582
-0.138208935 -0.719072483 -0.64740582
-0.028651396 -0.731673454 -0.64740582
0.081556031 -0.727678198 -0.64740582
0.189913558 -0.707177338 -0.64740582
0.293963359 -0.670635885 -0.64740582
0.391345319 -0.618882693 -0.64740582
0.479850565 -0.553091658 -0.64740582
0.557471572 -0.474755088 -0.64740582
0.622447696 -0.385649857 -0.64740582
0.673305113 -0.2877971 -0.64740582
0.708890247 -0.183416368 -0.64740582
0.728395935 -0.074875283 -0.64740582
0.677557633 0 -0.689439999
0.668585871 0.109896671 -0.689439999
0.641908183 0.216882987 -0.689439999
0.598231064 0.318125666 -0.689439999
0.538711201 0.410943534 -0.689439999
0.464924836 0.492878528 -0.689439999
0.378826028 0.561760791 -0.689439999
0.282694903 0.615766139 -0.689439999
0.179077267 0.653464366 -0.689439999
0.070717191 0.673857125 -0.689439999
-0.039515665 0.67640436 -0.689439999
-0.14870204 0.661038614 -0.689439999
-0.253950392 0.628166812 -0.689439999
-0.352473464 0.578659488 -0.689439999
-0.441662103 0.513827726 -0.689439999
-0.519154359 0.435388444 -0.689439999
-0.582898032 0.34541892 -0.689439999
-0.631205018 0.246301788 -0.689439999
-0.662796022 0.140661932 -0.689439999
-0.67683443 0.031296974 -0.689439999
-0.672948467 -0.07889681 -0.689439999
-0.651241044 -0.187001198 -0.689439999
-0.612287032 -0.290153298 -0.689439999
-0.557118036 -0.385621369 -0.689439999
-0.487195076 -0.470877164 -0.689439999
-0.404369899 -0.543662883 -0.689439999
-0.310835935 -0.602050967 -0.689439999
-0.209070212 -0.644495145 -0.689439999
-0.101767754 -0.669871383 -0.689439999
0.008229783 -0.67750765 -0.689439999
0.118009374 -0.667201719 -0.689439999
0.224663764 -0.639226516 -0.689439999
0.325368461 -0.5943229 -0.689439999
0.417456539 -0.533680038 -0.689439999
0.498489261 -0.458903914 -0.689439999
0.566320666 -0.371974797 -0.689439999
0.619154397 -0.275194801 -0.689439999
0.655591278 -0.171126917 -0.689439999
0.674666364 -0.062527138 -0.689439999
0.619580057 0 -0.728115295
0.609773011 0.10980129 -0.728115295
0.580662332 0.216126591 -0.728115295
0.533169581 0.315609957 -0.728115295
0.46879824 0.405102034 -0.728115295
0.389586116 0.481769764 -0.728115295
0.298040835 0.543186071 -0.728115295
0.197060452 0.587406696 -0.728115295
0.089841711 0.61303174 -0.728115295
-0.020221157 0.619249992 -0.728115295
-0.129643881 0.605864598 -0.728115295
-0.234962459 0.573299303 -0.728115295
-0.332842813 0.522585026 -0.728115295
-0.420186335 0.455327235 -0.728115295
-0.494227987 0.373655115 -0.728115295
-0.552623824 0.280154166 -0.728115295
-0.593525207 0.177784354 -0.728115295
-0.615637316 0.06978641 -0.728115295
-0.618260147 -0.040420769 -0.728115295
-0.601310668 -0.149348344 -0.728115295
-0.565325452 -0.253547986 -0.728115295
-0.511443683 -0.349721041 -0.728115295
-0.441371103 -0.43482295 -0.728115295
-0.357326003 -0.506159634 -0.728115295
-0.261969006 -0.561472784 -0.728115295
-0.158318836 -0.599011347 -0.728115295
-0.049656755 -0.617586961 -0.728115295
0.060577314 -0.616611577 -0.728115295
0.168893683 -0.596116072 -0.728115295
0.271863371 -0.556749275 -0.728115295
0.366226659 -0.499757423 -0.728115295
0.448996282 -0.426944711 -0.728115295
0.517551994 -0.340616178 -0.728115295
0.569723523 -0.243504732 -0.728115295
0.603859271 -0.138684638 -0.728115295
0.618878598 -0.029474193 -0.728115295
0.55858395 0 -0.763243287
0.547712625 0.10966727 -0.763243287
0.51552181 0.215065786 -0.763243287
0.463264521 0.312092955 -0.763243287
0.392974851 0.396972034 -0.763243287
0.307388796 0.46639914 -0.763243287
0.209837758 0.51767185 -0.763243287
0.104118872 0.548794397 -0.763243287
-0.005652799 0.558555347 -0.763243287
-0.115204436 0.546574759 -0.763243287
-0.220271789 0.513318974 -0.763243287
-0.316765152 0.460082458 -0.763243287
-0.400928562 0.388937421 -0.763243287
-0.469485993 0.302653155 -0.763243287
-0.519768873 0.20458824 -0.763243287
-0.549819964 0.098559811 -0.763243287
-0.558469539 -0.011305018 -0.763243287
-0.545380916 -0.120729804 -0.763243287
-0.511063565 -0.225455232 -0.763243287
-0.456853275 -0.321404908 -0.763243287
-0.384860159 -0.404844029 -0.763243287
-0.297886519 -0.472524763 -0.763243287
-0.199317768 -0.521812665 -0.763243287
-0.092990655 -0.550789222 -0.763243287
0.01695608 -0.558326536 -0.763243287
0.126242808 -0.544131219 -0.763243287
0.230615585 -0.508755817 -0.763243287
0.326011746 -0.453577304 -0.763243287
0.408718034 -0.380743481 -0.763243287
0.47551514 -0.293089374 -0.763243287
0.523803014 -0.194026884 -0.763243287
0.551702072 -0.087411977 -0.763243287
0.494866478 0 -0.794652834
0.482606344 0.109471223 -0.794652834
0.44643342 0.213518227 -0.794652834
0.388140049 0.30698556 -0.794652834
0.310614624 0.385241985 -0.794652834
0.217698473 0.444409953 -0.794652834
0.113995524 0.481557735 -0.794652834
0.00464418 0.494844686 -0.794652834
-0.10493728 0.483612447 -0.794652834
-0.209319174 0.448417567 -0.794652834
-0.303329458 0.391003927 -0.794652834
-0.382309991 0.314216331 -0.794652834
-0.442347344 0.221859546 -0.794652834
-0.480466713 0.118509785 -0.794652834
-0.49477931 0.009287951 -0.794652834
-0.484575956 -0.100394095 -0.794652834
-0.45036222 -0.205101686 -0.794652834
-0.393833368 -0.299646641 -0.794652834
-0.317790363 -0.379344325 -0.794652834
-0.226001079 -0.440245776 -0.794652834
-0.123013608 -0.479333374 -0.794652834
-0.013930903 -0.494670356 -0.794652834
0.095842067 -0.485496786 -0.794652834
0.200866134 -0.452267208 -0.794652834
0.295937432 -0.396628123 -0.794652834
0.376345248 -0.321336406 -0.794652834
0.438105434 -0.230122707 -0.794652834
0.478157818 -0.127506597 -0.794652834
0.494517835 -0.018572629 -0.794652834
0.428738067 0 -0.822190912
0.414606434 0.109168836 -0.822190912
0.373143121 0.211141045 -0.822190912
0.307081473 0.299194417 -0.822190912
0.220776403 0.367524298 -0.822190912
0.119917314 0.411626247 -0.822190912
0.011153038 0.428592977 -0.822190912
-0.098346469 0.417306005 -0.822190912
-0.201362781 0.378509392 -0.822190912
-0.291104859 0.314760688 -0.822190912
-0.361656726 0.230262334 -0.822190912
-0.408367462 0.13058463 -0.822190912
-0.428157804 0.022298527 -0.822190912
-0.419723133 -0.08745754 -0.822190912
-0.383619479 -0.191448231 -0.822190912
-0.322226866 -0.282818274 -0.822190912
-0.239592418 -0.355544375 -0.822190912
-0.141163562 -0.404832284 -0.822190912
-0.033428923 -0.427432845 -0.822190912
0.076509417 -0.421856183 -0.822190912
0.181404104 -0.388469923 -0.822190912
0.274340272 -0.329474954 -0.822190912
0.349191384 -0.248760341 -0.822190912
0.401023106 -0.151646952 -0.822190912
0.426418589 -0.044536695 -0.822190912
0.360520886 0 -0.845723359
0.343753751 0.108667694 -0.845723359
0.295011961 0.207227537 -0.845723359
0.218829291 0.286511869 -0.845723359
0.122291959 0.339145966 -0.845723359
0.014379498 0.360234006 -0.845723359
-0.094870488 0.347814462 -0.845723359
-0.195295986 0.30304255 -0.845723359
-0.2775558 0.230082783 -0.845723359
-0.333998439 0.135721599 -0.845723359
-0.359373824 0.028736112 -0.845723359
-0.351321635 -0.080922298 -0.845723359
-0.310590855 -0.183053627 -0.845723359
-0.240970106 -0.268158009 -0.845723359
-0.148935241 -0.328319362 -0.845723359
-0.043046992 -0.357941707 -0.845723359
0.066845323 -0.354269689 -0.845723359
0.170519942 -0.317644863 -0.845723359
0.258333451 -0.25147393 -0.845723359
0.322117773 -0.161911857 -0.845723359
0.355939936 -0.057289365 -0.845723359
0.290547284 0 -0.865135526
0.269829761 0.107747968 -0.865135526
0.210631723 0.200129962 -0.865135526
0.121395424 0.263971354 -0.865135526
0.014846882 0.290167701 -0.865135526
-0.093818979 0.274983133 -0.865135526
-0.189105284 0.220583127 -0.865135526
-0.257423219 0.134725687 -0.865135526
-0.289029942 0.02965497 -0.865135526
-0.279418006 -0.079644852 -0.865135526
-0.229958173 -0.177586495 -0.865135526
-0.147703927 -0.250202467 -0.865135526
-0.044385573 -0.28713698 -0.865135526
0.065262622 -0.283122791 -0.865135526
0.165603692 -0.238732364 -0.865135526
0.242327964 -0.160296233 -0.865135526
0.284493762 -0.059000202 -0.865135526
0.219158165 0 -0.880332841
0.191942038 0.105775968 -0.880332841
0.117053319 0.185280387 -0.880332841
0.013092099 0.218766767 -0.880332841
-0.094120802 0.197918104 -0.880332841
-0.177956945 0.127912576 -0.880332841
-0.21759397 0.026137435 -0.880332841
-0.20318724 -0.082129453 -0.880332841
