# .PCD v.5 - Point Cloud Data file format
VERSION .5
FIELDS x y z
SIZE 4 4 4
TYPE F F F
COUNT 1 1 1
WIDTH 1307
HEIGHT 1
POINTS 1307
DATA ascii
0.180545474 -0.831192208 0.531233258
0.283819989 -0.801825024 0.531233258
0.382572048 -0.759681369 0.531233258
0.475228113 -0.705432771 0.531233258
0.560311781 -0.63994364 0.531233258
0.636467307 -0.564257495 0.531233258
0.702481213 -0.479580338 0.531233258
0.757301616 -0.387261433 0.531233258
0.800054995 -0.288771812 0.531233258
0.830060108 -0.185680833 0.531233258
0.846838846 -0.079631171 0.531233258
0.888523317 0 0.475
0.882035395 0.107178568 0.475
0.86266638 0.212791918 0.475
0.830699133 0.315297692 0.475
0.786600498 0.413198912 0.475
0.731014484 0.505065846 0.475
0.664752859 0.589556885 0.475
0.588783298 0.665438136 0.475
0.504215245 0.731601442 0.475
0.41228372 0.787080566 0.475
0.314331274 0.831065301 0.475
0.211788388 0.8629133 0.475
0.106152581 0.882159461 0.475
-0.001033461 0.888522716 0.475
-0.10820441 0.881910137 0.475
-0.213795161 0.862418294 0.475
-0.316263683 0.830331841 0.475
-0.414113545 0.786119365 0.475
-0.505915763 0.730426536 0.475
-0.590329675 0.664066683 0.475
-0.666122513 0.588008914 0.475
-0.732187411 0.503363963 0.475
-0.78755957 0.411367971 0.475
-0.831430344 0.313364431 0.475
-0.863159052 0.210784572 0.475
-0.882282332 0.10512645 0.475
-0.888520913 -0.002066921 0.475
-0.881783686 -0.109230106 0.475
-0.862169041 -0.214798114 0.475
-0.829963427 -0.317229246 0.475
-0.785637169 -0.415027618 0.475
-0.7298376 -0.506764996 0.475
-0.663379608 -0.591101666 0.475
-0.587233734 -0.666805988 0.475
-0.502511999 -0.73277239 0.475
-0.410451665 -0.788037509 0.475
-0.312397165 -0.831794263 0.475
-0.20978047 -0.863403636 0.475
-0.104100177 -0.88240401 0.475
0.003100377 -0.888517907 0.475
0.110255654 -0.881656041 0.475
0.215800776 -0.861918621 0.475
0.31819438 -0.829593889 0.475
0.415941129 -0.78515391 0.475
0.507613544 -0.729247677 0.475
0.591872858 -0.662691636 0.475
0.667488561 -0.58645776 0.475
0.733356377 -0.501659355 0.475
0.788514381 -0.409534803 0.475
0.832157056 -0.311429475 0.475
0.863647052 -0.208776084 0.475
0.882524495 -0.103073763 0.475
0.922143234 0 0.416452589
0.915891307 0.107197285 0.416452589
0.8972203 0.212941022 0.416452589
0.866383382 0.315797373 0.416452589
0.823798688 0.414371652 0.416452589
0.77004365 0.507327234 0.416452589
0.70584716 0.593403684 0.416452589
0.632079695 0.671433842 0.416452589
0.549741509 0.740359655 0.416452589
0.459949071 0.799246518 0.416452589
0.363919928 0.847295952 0.416452589
0.262956192 0.883856428 0.416452589
0.158426886 0.908432203 0.416452589
0.051749381 0.920690038 0.416452589
-0.055629822 0.920463724 0.416452589
-0.162254709 0.90775633 0.416452589
-0.266679495 0.882740161 0.416452589
-0.367488224 0.845754427 0.416452589
-0.463313976 0.797300636 0.416452589
-0.552857395 0.738035802 0.416452589
-0.634904313 0.66876353 0.416452589
-0.708342209 0.590423119 0.416452589
-0.772175298 0.504076833 0.416452589
-0.825538033 0.410895488 0.416452589
-0.867706836 0.312142581 0.416452589
-0.898109919 0.20915716 0.416452589
-0.916335029 0.10333566 0.416452589
-0.922135042 -0.003887026 0.416452589
-0.915431312 -0.111057005 0.416452589
-0.896314738 -0.216721101 0.416452589
-0.865044533 -0.319446554 0.416452589
-0.822044707 -0.417840454 0.416452589
-0.767898319 -0.510568621 0.416452589
-0.703339569 -0.596373705 0.416452589
-0.629243846 -0.674092225 0.416452589
-0.546615855 -0.742670352 0.416452589
-0.456575995 -0.801178199 0.416452589
-0.360345166 -0.848822423 0.416452589
-0.259228217 -0.884956991 0.416452589
-0.154596247 -0.909091934 0.416452589
-0.047868021 -0.920899993 0.416452589
0.059509274 -0.920221056 0.416452589
0.16607965 -0.907064328 0.416452589
0.270398059 -0.881608209 0.416452589
0.37104999 -0.844197874 0.416452589
0.466670648 -0.795340588 0.416452589
0.555963458 -0.735698837 0.416452589
0.63771765 -0.666081334 0.416452589
0.710824673 -0.587432064 0.416452589
0.774293227 -0.500817475 0.416452589
0.827262708 -0.407412022 0.416452589
0.869014874 -0.308482243 0.416452589
0.898983582 -0.205369581 0.416452589
0.91676247 -0.099472199 0.416452589
0.951270563 0 0.355876264
0.945209653 0.107211924 0.355876264
0.927104155 0.213057671 0.355876264
0.897184782 0.316188473 0.355876264
0.855832792 0.415290159 0.355876264
0.803575123 0.509099899 0.355876264
0.741077681 0.596422296 0.355876264
0.669136858 0.676144622 0.355876264
0.588669379 0.747250993 0.355876264
0.500700622 0.808835318 0.355876264
0.406351553 0.860112841 0.355876264
0.306824441 0.900430146 0.355876264
0.203387535 0.929273477 0.355876264
0.097358909 0.946275291 0.355876264
-0.009910339 0.951218939 0.355876264
-0.117053302 0.944041423 0.355876264
-0.222704682 0.924834206 0.355876264
-0.325518188 0.893842041 0.355876264
-0.42418369 0.851459853 0.355876264
-0.517443918 0.798227709 0.355876264
-0.604110478 0.734823935 0.355876264
-0.683078998 0.662056469 0.355876264
-0.7533432 0.58085257 0.355876264
-0.814007724 0.492247001 0.355876264
-0.864299535 0.397368843 0.355876264
-0.903577778 0.297427106 0.355876264
-0.931341938 0.193695324 0.355876264
-0.947238224 0.087495327 0.355876264
-0.951064071 -0.019819603 0.355876264
-0.94277073 -0.126881976 0.355876264
-0.922463879 -0.232327521 0.355876264
-0.890402284 -0.334812571 0.355876264
-0.846994498 -0.433031181 0.355876264
-0.792793658 -0.525731775 0.355876264
-0.728490432 -0.611733091 0.355876264
-0.654904221 -0.689939234 0.355876264
-0.572972716 -0.75935364 0.355876264
-0.483739953 -0.819091779 0.355876264
-0.388343004 -0.86839242 0.355876264
-0.287997489 -0.906627338 0.355876264
-0.183982089 -0.933309314 0.355876264
-0.077622248 -0.948098345 0.355876264
0.029726715 -0.950805977 0.355876264
0.136696878 -0.94139771 0.355876264
0.241925144 -0.919993429 0.355876264
0.344070614 -0.886865884 0.355876264
0.441831672 -0.842437213 0.355876264
0.533962571 -0.787273559 0.355876264
0.619289308 -0.722077861 0.355876264
0.696724585 -0.647680891 0.355876264
0.765281662 -0.565030673 0.355876264
0.824086932 -0.475180401 0.355876264
0.872391052 -0.379275014 0.355876264
0.909578495 -0.278536614 0.355876264
0.93517539 -0.174248886 0.355876264
0.948855561 -0.067740744 0.355876264
0.975763397 0 0.293566145
0.969854312 0.107223233 0.293566145
0.952198624 0.213147809 0.293566145
0.923010174 0.316490798 0.293566145
0.882642486 0.41600054 0.293566145
0.83158448 0.510471801 0.293566145
0.770454558 0.598760371 0.293566145
0.699993107 0.679796924 0.293566145
0.621053536 0.752599968 0.293566145
0.534591941 0.816287734 0.293566145
0.441655518 0.870088852 0.293566145
0.343369888 0.9133517 0.293566145
0.240925459 0.945552289 0.293566145
0.135563008 0.966300615 0.293566145
0.028558656 0.97534538 0.293566145
-0.07879159 0.972577037 0.293566145
-0.185187534 0.958029115 0.293566145
-0.289340539 0.931877814 0.293566145
-0.389989133 0.894439871 0.293566145
-0.485914289 0.846168725 0.293566145
-0.575954187 0.787649022 0.293566145
-0.659018291 0.719589535 0.293566145
-0.734100551 0.642814583 0.293566145
-0.800291592 0.558254042 0.293566145
-0.856789727 0.466932085 0.293566145
-0.902910665 0.369954778 0.293566145
-0.938095805 0.268496683 0.293566145
-0.961918992 0.163786632 0.293566145
-0.974091687 0.057092844 0.293566145
-0.974466458 -0.050292437 0.293566145
-0.963038766 -0.15706859 0.293566145
-0.93994702 -0.261942373 0.293566145
-0.905470901 -0.363643583 0.293566145
-0.860027972 -0.460940445 0.293566145
-0.804168628 -0.552654526 0.293566145
-0.73856942 -0.637675011 0.293566145
-0.664024866 -0.714972156 0.293566145
-0.581437831 -0.78360976 0.293566145
-0.491808585 -0.842756503 0.293566145
-0.396222691 -0.891696017 0.293566145
-0.29583786 -0.92983556 0.293566145
-0.191869924 -0.956713196 0.293566145
-0.085578114 -0.972003392 0.293566145
0.021750194 -0.975520957 0.293566145
0.12881507 -0.967223286 0.293566145
0.234319775 -0.94721088 0.293566145
0.336986464 -0.915726122 0.293566145
0.435571668 -0.873150348 0.293566145
0.528881351 -0.819999222 0.293566145
0.615785372 -0.756916497 0.293566145
0.695231173 -0.684666213 0.293566145
0.766256531 -0.604123444 0.293566145
0.828001206 -0.516263703 0.293566145
0.879717363 -0.422151121 0.293566145
0.920778632 -0.322925563 0.293566145
0.950687689 -0.219788822 0.293566145
0.969082284 -0.113990061 0.293566145
0.975739628 -0.006810684 0.293566145
0.99550241 0 0.229825801
0.989710261 0.107231747 0.229825801
0.972401215 0.213215678 0.229825801
0.943776692 0.316718495 0.229825801
0.904169783 0.416535775 0.229825801
0.854041381 0.51150598 0.229825801
0.793974812 0.600523977 0.229825801
0.724669047 0.682553896 0.229825801
0.646930573 0.756641184 0.229825801
0.561664005 0.821923716 0.229825801
0.469861558 0.877641821 0.229825801
0.372591503 0.923147129 0.229825801
0.270985737 0.95791011 0.229825801
0.166226609 0.981526242 0.229825801
0.059533162 0.993720711 0.229825801
-0.04785305 0.994351615 0.229825801
-0.154682413 0.983411613 0.229825801
-0.259711794 0.961028008 0.229825801
-0.361719004 0.927461272 0.229825801
-0.459517021 0.883102008 0.229825801
-0.551967807 0.828466408 0.229825801
-0.637995545 0.764190247 0.229825801
-0.716599162 0.691021483 0.229825801
-0.786863976 0.609811555 0.229825801
-0.847972341 0.521505472 0.229825801
-0.899213162 0.42713082 0.229825801
-0.939990168 0.327785803 0.229825801
-0.969828851 0.224626463 0.229825801
-0.988381991 0.118853226 0.229825801
-0.99543369 0.011696938 0.229825801
-0.99090189 -0.095595464 0.229825801
-0.974839328 -0.201775455 0.229825801
-0.947432915 -0.30560746 0.229825801
-0.909001573 -0.405883222 0.229825801
-0.85999251 -0.501435869 0.229825801
-0.800976029 -0.59115349 0.229825801
-0.732638883 -0.673992074 0.229825801
-0.655776285 -0.748987659 0.229825801
-0.571282658 -0.815267547 0.229825801
-0.480141224 -0.872060465 0.229825801
-0.383412561 -0.918705533 0.229825801
-0.282222267 -0.954659961 0.229825801
-0.177747855 -0.979505359 0.229825801
-0.071205056 -0.992952612 0.229825801
0.03616633 -0.994845237 0.229825801
0.143116862 -0.985161212 0.229825801
0.248401995 -0.964013225 0.229825801
0.350796565 -0.931647368 0.229825801
0.449109043 -0.888440272 0.229825801
0.542195403 -0.83489472 0.229825801
0.628972434 -0.771633803 0.229825801
0.708430342 -0.699393666 0.229825801
0.779644504 -0.61901494 0.229825801
0.841786229 -0.531432963 0.229825801
0.894132394 -0.437666895 0.229825801
0.936073867 -0.338807857 0.229825801
0.967122591 -0.236006236 0.229825801
0.986917262 -0.130458296 0.229825801
0.995227537 -0.023392261 0.229825801
1.010391436 0 0.164965769
1.004684477 0.107237842 0.164965769
0.98762807 0.213264268 0.164965769
0.959414893 0.316881549 0.164965769
0.920363657 0.416919167 0.164965769
0.870915505 0.512247045 0.164965769
0.811629031 0.60178831 0.164965769
0.743173964 0.684531454 0.164965769
0.666323611 0.759541769 0.164965769
0.581946113 0.825971897 0.164965769
0.490994643 0.883071409 0.164965769
0.394496637 0.930195279 0.164965769
0.293542189 0.966811169 0.164965769
0.189271732 0.992505448 0.164965769
0.082863162 1.00698786 0.164965769
-0.024481475 1.010094803 0.164965769
-0.131549556 1.00179118 0.164965769
-0.237131584 0.982170792 0.164965769
-0.340034847 0.951455283 0.164965769
-0.439096897 0.909991631 0.164965769
-0.533198675 0.858248231 0.164965769
-0.621277158 0.796809604 0.164965769
-0.702337366 0.726369794 0.164965769
-0.775463598 0.647724525 0.164965769
-0.839829783 0.561762217 0.164965769
-0.894708805 0.469453946 0.164965769
-0.939480723 0.371842473 0.164965769
-0.973639768 0.270030471 0.164965769
-0.996800062 0.165168062 0.164965769
-1.008699975 0.058439827 0.164965769
-1.009205078 -0.048948576 0.164965769
-0.998309666 -0.155784029 0.164965769
-0.976136819 -0.260859664 0.164965769
-0.942937013 -0.362988489 0.164965769
-0.89908529 -0.461016804 0.164965769
-0.845077024 -0.553837229 0.164965769
-0.78152232 -0.640401215 0.164965769
-0.709139125 -0.71973089 0.164965769
-0.628745119 -0.790930103 0.164965769
-0.541248475 -0.85319455 0.164965769
-0.447637602 -0.90582086 0.164965769
-0.348969977 -0.948214537 0.164965769
-0.246360202 -0.97989668 0.164965769
-0.140967411 -1.000509391 0.164965769
-0.033982178 -1.009819818 0.164965769
0.073386935 -1.007722785 0.164965769
0.179927031 -0.994241981 0.164965769
0.284434576 -0.969529693 0.164965769
0.385728997 -0.933865083 0.164965769
0.482666019 -0.887651039 0.164965769
0.57415059 -0.831409618 0.164965769
0.659149252 -0.765776153 0.164965769
0.736701814 -0.691492076 0.164965769
0.805932202 -0.609396537 0.164965769
0.866058353 -0.520416932 0.164965769
0.916401049 -0.425558421 0.164965769
0.956391594 -0.325892577 0.164965769
0.985578232 -0.222545278 0.164965769
1.003631257 -0.11668399 0.164965769
1.010346731 -0.009504577 0.164965769
1.020357935 0 0.09930204
1.014706617 0.107241774 0.09930204
0.997815262 0.213295616 0.09930204
0.969870977 0.316986756 0.09930204
0.931183307 0.417166592 0.09930204
0.882180798 0.512725419 0.09930204
0.823406258 0.602604721 0.09930204
0.755510741 0.685808892 0.09930204
0.679246333 0.76141627 0.09930204
0.595457825 0.82858934 0.09930204
0.505073354 0.886584019 0.09930204
0.40909412 0.934757892 0.09930204
0.308583298 0.972577331 0.09930204
0.204654258 0.999623405 0.09930204
0.098458236 1.01559652 0.09930204
-0.00882842 1.020319742 0.09930204
-0.116017282 1.013740749 0.09930204
-0.221921007 0.995932419 0.09930204
-0.325366483 0.967092016 0.09930204
-0.425207833 0.92753901 0.09930204
-0.5203391 0.877711534 0.09930204
-0.609706504 0.818161534 0.09930204
-0.69232011 0.749548652 0.09930204
-0.767264796 0.672632923 0.09930204
-0.833710391 0.588266352 0.09930204
-0.890920868 0.497383478 0.09930204
-0.938262498 0.400991023 0.09930204
-0.975210874 0.300156738 0.09930204
-1.001356712 0.195997578 0.09930204
-1.016410393 0.089667328 0.09930204
-1.020205163 -0.017656179 0.09930204
-1.012698989 -0.124784106 0.09930204
-0.993975017 -0.230529783 0.09930204
-0.964240655 -0.333721852 0.09930204
-0.923825275 -0.433217241 0.09930204
-0.873176562 -0.527913827 0.09930204
-0.812855559 -0.616762642 0.09930204
-0.74353045 -0.698779498 0.09930204
-0.665969157 -0.773055883 0.09930204
-0.581030838 -0.838769027 0.09930204
-0.489656365 -0.895191019 0.09930204
-0.392857905 -0.941696863 0.09930204
-0.291707708 -0.97777141 0.09930204
-0.187326226 -1.003015055 0.09930204
-0.080869707 -1.017148173 0.09930204
0.026482616 -1.020014209 0.09930204
0.133541588 -1.011581416 0.09930204
0.239121302 -0.991943204 0.09930204
0.342052238 -0.961317108 0.09930204
0.441194218 -0.920042379 0.09930204
0.535449032 -0.86857622 0.09930204
0.623772607 -0.807488731 0.09930204
0.705186573 -0.737456584 0.09930204
0.778789096 -0.659255535 0.09930204
0.843764871 -0.573751827 0.09930204
0.899394153 -0.481892596 0.09930204
0.94506073 -0.384695378 0.09930204
0.980258746 -0.283236839 0.09930204
1.004598309 -0.178640849 0.09930204
1.017809807 -0.072066032 0.09930204
1.025353354 0 0.033154522
1.019729517 0.107243701 0.033154522
1.002919699 0.213310987 0.033154522
0.975108296 0.317038345 0.033154522
0.936600385 0.417287932 0.033154522
0.887818383 0.512960056 0.033154522
0.829297406 0.603005235 0.033154522
0.761679402 0.686435713 0.033154522
0.685706113 0.762336295 0.033154522
0.602210931 0.829874385 0.033154522
0.512109762 0.88830912 0.033154522
0.416390975 0.936999496 0.033154522
0.316104563 0.975411403 0.033154522
0.212350624 1.003123478 0.033154522
0.106267292 1.019831733 0.033154522
-0.000981745 1.025352884 0.033154522
-0.108220012 1.019626367 0.033154522
-0.214271154 1.002715001 0.033154522
-0.317971836 0.974804294 0.033154522
-0.418184508 0.936200415 0.033154522
-0.51380988 0.887326832 0.033154522
-0.603798986 0.828719666 0.033154522
-0.687164683 0.761021812 0.033154522
-0.762992488 0.684975885 0.033154522
-0.830450603 0.601416076 0.033154522
-0.888799042 0.511258998 0.033154522
-0.937397749 0.415493635 0.033154522
-0.975713617 0.315170491 0.033154522
-1.003326338 0.211390066 0.033154522
-1.019933013 0.105290785 0.033154522
-1.025351474 -0.001963489 0.033154522
-1.019522283 -0.109196224 0.033154522
-1.002509383 -0.215231125 0.033154522
-0.974499399 -0.318905036 0.033154522
-0.935799587 -0.4190807 0.033154522
-0.886834468 -0.514659233 0.033154522
-0.828141167 -0.604592183 0.033154522
-0.760363524 -0.687893024 0.033154522
-0.684245029 -0.763647982 0.033154522
-0.600620669 -0.83102606 0.033154522
-0.510407765 -0.88928815 0.033154522
-0.414595915 -0.937795142 0.033154522
-0.31423613 -0.976014936 0.033154522
-0.210429314 -1.003528278 0.033154522
-0.104314182 -1.020033358 0.033154522
0.002945231 -1.025349124 0.033154522
0.110172336 -1.019417263 0.033154522
0.216190899 -1.002302846 0.033154522
0.319837944 -0.97419361 0.033154522
0.419976507 -0.935397901 0.033154522
0.515508115 -0.886341291 0.033154522
0.605384826 -0.827561909 0.033154522
0.688620734 -0.759704538 0.033154522
0.764302776 -0.683513545 0.033154522
0.831600755 -0.599824711 0.033154522
0.889776442 -0.509556065 0.033154522
0.938191675 -0.413697814 0.033154522
0.97631536 -0.313301481 0.033154522
1.003729297 -0.20946837 0.033154522
1.020132768 -0.103337483 0.033154522
1.025353354 0 -0.033154522
1.019729517 0.107243701 -0.033154522
1.002919699 0.213310987 -0.033154522
0.975108296 0.317038345 -0.033154522
0.936600385 0.417287932 -0.033154522
0.887818383 0.512960056 -0.033154522
0.829297406 0.603005235 -0.033154522
0.761679402 0.686435713 -0.033154522
0.685706113 0.762336295 -0.033154522
0.602210931 0.829874385 -0.033154522
0.512109762 0.88830912 -0.033154522
0.416390975 0.936999496 -0.033154522
0.316104563 0.975411403 -0.033154522
0.212350624 1.003123478 -0.033154522
0.106267292 1.019831733 -0.033154522
-0.000981745 1.025352884 -0.033154522
-0.108220012 1.019626367 -0.033154522
-0.214271154 1.002715001 -0.033154522
-0.317971836 0.974804294 -0.033154522
-0.418184508 0.936200415 -0.033154522
-0.51380988 0.887326832 -0.033154522
-0.603798986 0.828719666 -0.033154522
-0.687164683 0.761021812 -0.033154522
-0.762992488 0.684975885 -0.033154522
-0.830450603 0.601416076 -0.033154522
-0.888799042 0.511258998 -0.033154522
-0.937397749 0.415493635 -0.033154522
-0.975713617 0.315170491 -0.033154522
-1.003326338 0.211390066 -0.033154522
-1.019933013 0.105290785 -0.033154522
-1.025351474 -0.001963489 -0.033154522
-1.019522283 -0.109196224 -0.033154522
-1.002509383 -0.215231125 -0.033154522
-0.974499399 -0.318905036 -0.033154522
-0.935799587 -0.4190807 -0.033154522
-0.886834468 -0.514659233 -0.033154522
-0.828141167 -0.604592183 -0.033154522
-0.760363524 -0.687893024 -0.033154522
-0.684245029 -0.763647982 -0.033154522
-0.600620669 -0.83102606 -0.033154522
-0.510407765 -0.88928815 -0.033154522
-0.414595915 -0.937795142 -0.033154522
-0.31423613 -0.976014936 -0.033154522
-0.210429314 -1.003528278 -0.033154522
-0.104314182 -1.020033358 -0.033154522
0.002945231 -1.025349124 -0.033154522
0.110172336 -1.019417263 -0.033154522
0.216190899 -1.002302846 -0.033154522
0.319837944 -0.97419361 -0.033154522
0.419976507 -0.935397901 -0.033154522
0.515508115 -0.886341291 -0.033154522
0.605384826 -0.827561909 -0.033154522
0.688620734 -0.759704538 -0.033154522
0.764302776 -0.683513545 -0.033154522
0.831600755 -0.599824711 -0.033154522
0.889776442 -0.509556065 -0.033154522
0.938191675 -0.413697814 -0.033154522
0.97631536 -0.313301481 -0.033154522
1.003729297 -0.20946837 -0.033154522
1.020132768 -0.103337483 -0.033154522
1.020357935 0 -0.09930204
1.014706617 0.107241774 -0.09930204
0.997815262 0.213295616 -0.09930204
0.969870977 0.316986756 -0.09930204
0.931183307 0.417166592 -0.09930204
0.882180798 0.512725419 -0.09930204
0.823406258 0.602604721 -0.09930204
0.755510741 0.685808892 -0.09930204
0.679246333 0.76141627 -0.09930204
0.595457825 0.82858934 -0.09930204
0.505073354 0.886584019 -0.09930204
0.40909412 0.934757892 -0.09930204
0.308583298 0.972577331 -0.09930204
0.204654258 0.999623405 -0.09930204
0.098458236 1.01559652 -0.09930204
-0.00882842 1.020319742 -0.09930204
-0.116017282 1.013740749 -0.09930204
-0.221921007 0.995932419 -0.09930204
-0.325366483 0.967092016 -0.09930204
-0.425207833 0.92753901 -0.09930204
-0.5203391 0.877711534 -0.09930204
-0.609706504 0.818161534 -0.09930204
-0.69232011 0.749548652 -0.09930204
-0.767264796 0.672632923 -0.09930204
-0.833710391 0.588266352 -0.09930204
-0.890920868 0.497383478 -0.09930204
-0.938262498 0.400991023 -0.09930204
-0.975210874 0.300156738 -0.09930204
-1.001356712 0.195997578 -0.09930204
-1.016410393 0.089667328 -0.09930204
-1.020205163 -0.017656179 -0.09930204
-1.012698989 -0.124784106 -0.09930204
-0.993975017 -0.230529783 -0.09930204
-0.964240655 -0.333721852 -0.09930204
-0.923825275 -0.433217241 -0.09930204
-0.873176562 -0.527913827 -0.09930204
-0.812855559 -0.616762642 -0.09930204
-0.74353045 -0.698779498 -0.09930204
-0.665969157 -0.773055883 -0.09930204
-0.581030838 -0.838769027 -0.09930204
-0.489656365 -0.895191019 -0.09930204
-0.392857905 -0.941696863 -0.09930204
-0.291707708 -0.97777141 -0.09930204
-0.187326226 -1.003015055 -0.09930204
-0.080869707 -1.017148173 -0.09930204
0.026482616 -1.020014209 -0.09930204
0.133541588 -1.011581416 -0.09930204
0.239121302 -0.991943204 -0.09930204
0.342052238 -0.961317108 -0.09930204
0.441194218 -0.920042379 -0.09930204
0.535449032 -0.86857622 -0.09930204
0.623772607 -0.807488731 -0.09930204
0.705186573 -0.737456584 -0.09930204
0.778789096 -0.659255535 -0.09930204
0.843764871 -0.573751827 -0.09930204
0.899394153 -0.481892596 -0.09930204
0.94506073 -0.384695378 -0.09930204
0.980258746 -0.283236839 -0.09930204
1.004598309 -0.178640849 -0.09930204
1.017809807 -0.072066032 -0.09930204
1.010391436 0 -0.164965769
1.004684477 0.107237842 -0.164965769
0.98762807 0.213264268 -0.164965769
0.959414893 0.316881549 -0.164965769
0.920363657 0.416919167 -0.164965769
0.870915505 0.512247045 -0.164965769
0.811629031 0.60178831 -0.164965769
0.743173964 0.684531454 -0.164965769
0.666323611 0.759541769 -0.164965769
0.581946113 0.825971897 -0.164965769
0.490994643 0.883071409 -0.164965769
0.394496637 0.930195279 -0.164965769
0.293542189 0.966811169 -0.164965769
0.189271732 0.992505448 -0.164965769
0.082863162 1.00698786 -0.164965769
-0.024481475 1.010094803 -0.164965769
-0.131549556 1.00179118 -0.164965769
-0.237131584 0.982170792 -0.164965769
-0.340034847 0.951455283 -0.164965769
-0.439096897 0.909991631 -0.164965769
-0.533198675 0.858248231 -0.164965769
-0.621277158 0.796809604 -0.164965769
-0.702337366 0.726369794 -0.164965769
-0.775463598 0.647724525 -0.164965769
-0.839829783 0.561762217 -0.164965769
-0.894708805 0.469453946 -0.164965769
-0.939480723 0.371842473 -0.164965769
-0.973639768 0.270030471 -0.164965769
-0.996800062 0.165168062 -0.164965769
-1.008699975 0.058439827 -0.164965769
-1.009205078 -0.048948576 -0.164965769
-0.998309666 -0.155784029 -0.164965769
-0.976136819 -0.260859664 -0.164965769
-0.942937013 -0.362988489 -0.164965769
-0.89908529 -0.461016804 -0.164965769
-0.845077024 -0.553837229 -0.164965769
-0.78152232 -0.640401215 -0.164965769
-0.709139125 -0.71973089 -0.164965769
-0.628745119 -0.790930103 -0.164965769
-0.541248475 -0.85319455 -0.164965769
-0.447637602 -0.90582086 -0.164965769
-0.348969977 -0.948214537 -0.164965769
-0.246360202 -0.97989668 -0.164965769
-0.140967411 -1.000509391 -0.164965769
-0.033982178 -1.009819818 -0.164965769
0.073386935 -1.007722785 -0.164965769
0.179927031 -0.994241981 -0.164965769
0.284434576 -0.969529693 -0.164965769
0.385728997 -0.933865083 -0.164965769
0.482666019 -0.887651039 -0.164965769
0.57415059 -0.831409618 -0.164965769
0.659149252 -0.765776153 -0.164965769
0.736701814 -0.691492076 -0.164965769
0.805932202 -0.609396537 -0.164965769
0.866058353 -0.520416932 -0.164965769
0.916401049 -0.425558421 -0.164965769
0.956391594 -0.325892577 -0.164965769
0.985578232 -0.222545278 -0.164965769
1.003631257 -0.11668399 -0.164965769
1.010346731 -0.009504577 -0.164965769
0.99550241 0 -0.229825801
0.989710261 0.107231747 -0.229825801
0.972401215 0.213215678 -0.229825801
0.943776692 0.316718495 -0.229825801
0.904169783 0.416535775 -0.229825801
0.854041381 0.51150598 -0.229825801
0.793974812 0.600523977 -0.229825801
0.724669047 0.682553896 -0.229825801
0.646930573 0.756641184 -0.229825801
0.561664005 0.821923716 -0.229825801
0.469861558 0.877641821 -0.229825801
0.372591503 0.923147129 -0.229825801
0.270985737 0.95791011 -0.229825801
0.166226609 0.981526242 -0.229825801
0.059533162 0.993720711 -0.229825801
-0.04785305 0.994351615 -0.229825801
-0.154682413 0.983411613 -0.229825801
-0.259711794 0.961028008 -0.229825801
-0.361719004 0.927461272 -0.229825801
-0.459517021 0.883102008 -0.229825801
-0.551967807 0.828466408 -0.229825801
-0.637995545 0.764190247 -0.229825801
-0.716599162 0.691021483 -0.229825801
-0.786863976 0.609811555 -0.229825801
-0.847972341 0.521505472 -0.229825801
-0.899213162 0.42713082 -0.229825801
-0.939990168 0.327785803 -0.229825801
-0.969828851 0.224626463 -0.229825801
-0.988381991 0.118853226 -0.229825801
-0.99543369 0.011696938 -0.229825801
-0.99090189 -0.095595464 -0.229825801
-0.974839328 -0.201775455 -0.229825801
-0.947432915 -0.30560746 -0.229825801
-0.909001573 -0.405883222 -0.229825801
-0.85999251 -0.501435869 -0.229825801
-0.800976029 -0.59115349 -0.229825801
-0.732638883 -0.673992074 -0.229825801
-0.655776285 -0.748987659 -0.229825801
-0.571282658 -0.815267547 -0.229825801
-0.480141224 -0.872060465 -0.229825801
-0.383412561 -0.918705533 -0.229825801
-0.282222267 -0.954659961 -0.229825801
-0.177747855 -0.979505359 -0.229825801
-0.071205056 -0.992952612 -0.229825801
0.03616633 -0.994845237 -0.229825801
0.143116862 -0.985161212 -0.229825801
0.248401995 -0.964013225 -0.229825801
0.350796565 -0.931647368 -0.229825801
0.449109043 -0.888440272 -0.229825801
0.542195403 -0.83489472 -0.229825801
0.628972434 -0.771633803 -0.229825801
0.708430342 -0.699393666 -0.229825801
0.779644504 -0.61901494 -0.229825801
0.841786229 -0.531432963 -0.229825801
0.894132394 -0.437666895 -0.229825801
0.936073867 -0.338807857 -0.229825801
0.967122591 -0.236006236 -0.229825801
0.986917262 -0.130458296 -0.229825801
0.995227537 -0.023392261 -0.229825801
0.975763397 0 -0.293566145
0.969854312 0.107223233 -0.293566145
0.952198624 0.213147809 -0.293566145
0.923010174 0.316490798 -0.293566145
0.882642486 0.41600054 -0.293566145
0.83158448 0.510471801 -0.293566145
0.770454558 0.598760371 -0.293566145
0.699993107 0.679796924 -0.293566145
0.621053536 0.752599968 -0.293566145
0.534591941 0.816287734 -0.293566145
0.441655518 0.870088852 -0.293566145
0.343369888 0.9133517 -0.293566145
0.240925459 0.945552289 -0.293566145
0.135563008 0.966300615 -0.293566145
0.028558656 0.97534538 -0.293566145
-0.07879159 0.972577037 -0.293566145
-0.185187534 0.958029115 -0.293566145
-0.289340539 0.931877814 -0.293566145
-0.389989133 0.894439871 -0.293566145
-0.485914289 0.846168725 -0.293566145
-0.575954187 0.787649022 -0.293566145
-0.659018291 0.719589535 -0.293566145
-0.734100551 0.642814583 -0.293566145
-0.800291592 0.558254042 -0.293566145
-0.856789727 0.466932085 -0.293566145
-0.902910665 0.369954778 -0.293566145
-0.938095805 0.268496683 -0.293566145
-0.961918992 0.163786632 -0.293566145
-0.974091687 0.057092844 -0.293566145
-0.974466458 -0.050292437 -0.293566145
-0.963038766 -0.15706859 -0.293566145
-0.93994702 -0.261942373 -0.293566145
-0.905470901 -0.363643583 -0.293566145
-0.860027972 -0.460940445 -0.293566145
-0.804168628 -0.552654526 -0.293566145
-0.73856942 -0.637675011 -0.293566145
-0.664024866 -0.714972156 -0.293566145
-0.581437831 -0.78360976 -0.293566145
-0.491808585 -0.842756503 -0.293566145
-0.396222691 -0.891696017 -0.293566145
-0.29583786 -0.92983556 -0.293566145
-0.191869924 -0.956713196 -0.293566145
-0.085578114 -0.972003392 -0.293566145
0.021750194 -0.975520957 -0.293566145
0.12881507 -0.967223286 -0.293566145
0.234319775 -0.94721088 -0.293566145
0.336986464 -0.915726122 -0.293566145
0.435571668 -0.873150348 -0.293566145
0.528881351 -0.819999222 -0.293566145
0.615785372 -0.756916497 -0.293566145
0.695231173 -0.684666213 -0.293566145
0.766256531 -0.604123444 -0.293566145
0.828001206 -0.516263703 -0.293566145
0.879717363 -0.422151121 -0.293566145
0.920778632 -0.322925563 -0.293566145
0.950687689 -0.219788822 -0.293566145
0.969082284 -0.113990061 -0.293566145
0.975739628 -0.006810684 -0.293566145
0.951270563 0 -0.355876264
0.945209653 0.107211924 -0.355876264
0.927104155 0.213057671 -0.355876264
0.897184782 0.316188473 -0.355876264
0.855832792 0.415290159 -0.355876264
0.803575123 0.509099899 -0.355876264
0.741077681 0.596422296 -0.355876264
0.669136858 0.676144622 -0.355876264
0.588669379 0.747250993 -0.355876264
0.500700622 0.808835318 -0.355876264
0.406351553 0.860112841 -0.355876264
0.306824441 0.900430146 -0.355876264
0.203387535 0.929273477 -0.355876264
0.097358909 0.946275291 -0.355876264
-0.009910339 0.951218939 -0.355876264
-0.117053302 0.944041423 -0.355876264
-0.222704682 0.924834206 -0.355876264
-0.325518188 0.893842041 -0.355876264
-0.42418369 0.851459853 -0.355876264
-0.517443918 0.798227709 -0.355876264
-0.604110478 0.734823935 -0.355876264
-0.683078998 0.662056469 -0.355876264
-0.7533432 0.58085257 -0.355876264
-0.814007724 0.492247001 -0.355876264
-0.864299535 0.397368843 -0.355876264
-0.903577778 0.297427106 -0.355876264
-0.931341938 0.193695324 -0.355876264
-0.947238224 0.087495327 -0.355876264
-0.951064071 -0.019819603 -0.355876264
-0.94277073 -0.126881976 -0.355876264
-0.922463879 -0.232327521 -0.355876264
-0.890402284 -0.334812571 -0.355876264
-0.846994498 -0.433031181 -0.355876264
-0.792793658 -0.525731775 -0.355876264
-0.728490432 -0.611733091 -0.355876264
-0.654904221 -0.689939234 -0.355876264
-0.572972716 -0.75935364 -0.355876264
-0.483739953 -0.819091779 -0.355876264
-0.388343004 -0.86839242 -0.355876264
-0.287997489 -0.906627338 -0.355876264
-0.183982089 -0.933309314 -0.355876264
-0.077622248 -0.948098345 -0.355876264
0.029726715 -0.950805977 -0.355876264
0.136696878 -0.94139771 -0.355876264
0.241925144 -0.919993429 -0.355876264
0.344070614 -0.886865884 -0.355876264
0.441831672 -0.842437213 -0.355876264
0.533962571 -0.787273559 -0.355876264
0.619289308 -0.722077861 -0.355876264
0.696724585 -0.647680891 -0.355876264
0.765281662 -0.565030673 -0.355876264
0.824086932 -0.475180401 -0.355876264
0.872391052 -0.379275014 -0.355876264
0.909578495 -0.278536614 -0.355876264
0.93517539 -0.174248886 -0.355876264
0.948855561 -0.067740744 -0.355876264
0.922143234 0 -0.416452589
0.915891307 0.107197285 -0.416452589
0.8972203 0.212941022 -0.416452589
0.866383382 0.315797373 -0.416452589
0.823798688 0.414371652 -0.416452589
0.77004365 0.507327234 -0.416452589
0.70584716 0.593403684 -0.416452589
0.632079695 0.671433842 -0.416452589
0.549741509 0.740359655 -0.416452589
0.459949071 0.799246518 -0.416452589
0.363919928 0.847295952 -0.416452589
0.262956192 0.883856428 -0.416452589
0.158426886 0.908432203 -0.416452589
0.051749381 0.920690038 -0.416452589
-0.055629822 0.920463724 -0.416452589
-0.162254709 0.90775633 -0.416452589
-0.266679495 0.882740161 -0.416452589
-0.367488224 0.845754427 -0.416452589
-0.463313976 0.797300636 -0.416452589
-0.552857395 0.738035802 -0.416452589
-0.634904313 0.66876353 -0.416452589
-0.708342209 0.590423119 -0.416452589
-0.772175298 0.504076833 -0.416452589
-0.825538033 0.410895488 -0.416452589
-0.867706836 0.312142581 -0.416452589
-0.898109919 0.20915716 -0.416452589
-0.916335029 0.10333566 -0.416452589
-0.922135042 -0.003887026 -0.416452589
-0.915431312 -0.111057005 -0.416452589
-0.896314738 -0.216721101 -0.416452589
-0.865044533 -0.319446554 -0.416452589
-0.822044707 -0.417840454 -0.416452589
-0.767898319 -0.510568621 -0.416452589
-0.703339569 -0.596373705 -0.416452589
-0.629243846 -0.674092225 -0.416452589
-0.546615855 -0.742670352 -0.416452589
-0.456575995 -0.801178199 -0.416452589
-0.360345166 -0.848822423 -0.416452589
-0.259228217 -0.884956991 -0.416452589
-0.154596247 -0.909091934 -0.416452589
-0.047868021 -0.920899993 -0.416452589
0.059509274 -0.920221056 -0.416452589
0.16607965 -0.907064328 -0.416452589
0.270398059 -0.881608209 -0.416452589
0.37104999 -0.844197874 -0.416452589
0.466670648 -0.795340588 -0.416452589
0.555963458 -0.735698837 -0.416452589
0.63771765 -0.666081334 -0.416452589
0.710824673 -0.587432064 -0.416452589
0.774293227 -0.500817475 -0.416452589
0.827262708 -0.407412022 -0.416452589
0.869014874 -0.308482243 -0.416452589
0.898983582 -0.205369581 -0.416452589
0.91676247 -0.099472199 -0.416452589
0.888523317 0 -0.475
0.882035395 0.107178568 -0.475
0.86266638 0.212791918 -0.475
0.830699133 0.315297692 -0.475
0.786600498 0.413198912 -0.475
0.731014484 0.505065846 -0.475
0.664752859 0.589556885 -0.475
0.588783298 0.665438136 -0.475
0.504215245 0.731601442 -0.475
0.41228372 0.787080566 -0.475
0.314331274 0.831065301 -0.475
0.211788388 0.8629133 -0.475
0.106152581 0.882159461 -0.475
-0.001033461 0.888522716 -0.475
-0.10820441 0.881910137 -0.475
-0.213795161 0.862418294 -0.475
-0.316263683 0.830331841 -0.475
-0.414113545 0.786119365 -0.475
-0.505915763 0.730426536 -0.475
-0.590329675 0.664066683 -0.475
-0.666122513 0.588008914 -0.475
-0.732187411 0.503363963 -0.475
-0.78755957 0.411367971 -0.475
-0.831430344 0.313364431 -0.475
-0.863159052 0.210784572 -0.475
-0.882282332 0.10512645 -0.475
-0.888520913 -0.002066921 -0.475
-0.881783686 -0.109230106 -0.475
-0.862169041 -0.214798114 -0.475
-0.829963427 -0.317229246 -0.475
-0.785637169 -0.415027618 -0.475
-0.7298376 -0.506764996 -0.475
-0.663379608 -0.591101666 -0.475
-0.587233734 -0.666805988 -0.475
-0.502511999 -0.73277239 -0.475
-0.410451665 -0.788037509 -0.475
-0.312397165 -0.831794263 -0.475
-0.20978047 -0.863403636 -0.475
-0.104100177 -0.88240401 -0.475
0.003100377 -0.888517907 -0.475
0.110255654 -0.881656041 -0.475
0.215800776 -0.861918621 -0.475
0.31819438 -0.829593889 -0.475
0.415941129 -0.78515391 -0.475
0.507613544 -0.729247677 -0.475
0.591872858 -0.662691636 -0.475
0.667488561 -0.58645776 -0.475
0.733356377 -0.501659355 -0.475
0.788514381 -0.409534803 -0.475
0.832157056 -0.311429475 -0.475
0.863647052 -0.208776084 -0.475
0.882524495 -0.103073763 -0.475
0.850574603 0 -0.531233258
0.843797974 0.10715472 -0.531233258
0.823576068 0.212602012 -0.531233258
0.790231105 0.314661653 -0.531233258
0.744294412 0.4117074 -0.531233258
0.686497955 0.502192903 -0.531233258
0.617762677 0.584676346 -0.531233258
0.539183821 0.657843417 -0.531233258
0.452013483 0.720528255 -0.531233258
0.357640654 0.771732024 -0.531233258
0.257569094 0.810638832 -0.531233258
0.153393368 0.836628728 -0.531233258
0.046773434 0.849287584 -0.531233258
-0.060591798 0.848413689 -0.531233258
-0.166991546 0.83402097 -0.531233258
-0.270730411 0.806338762 -0.531233258
-0.370155394 0.765808161 -0.531233258
-0.463682232 0.71307499 -0.531233258
-0.549820648 0.648979514 -0.531233258
-0.627198091 0.574543043 -0.531233258
-0.694581611 0.490951668 -0.531233258
-0.750897502 0.399537352 -0.531233258
-0.795248414 0.301756713 -0.531233258
-0.82692765 0.199167811 -0.531233258
-0.845430423 0.093405321 -0.531233258
-0.850461908 -0.013845511 -0.531233258
-0.84194193 -0.120875725 -0.531233258
-0.82000625 -0.225979877 -0.531233258
-0.785004395 -0.327483211 -0.531233258
-0.737494094 -0.423768351 -0.531233258
-0.678232387 -0.513301065 -0.531233258
-0.608163564 -0.594654718 -0.531233258
-0.528404119 -0.666533001 -0.531233258
-0.440224956 -0.72779059 -0.531233258
-0.345031145 -0.77745139 -0.531233258
-0.244339526 -0.814724095 -0.531233258
-0.139754542 -0.839014793 -0.531233258
-0.032942676 -0.84993643 -0.531233258
0.074394106 -0.847314978 -0.531233258
0.180545474 -0.831192208 -0.531233258
0.283819989 -0.801825024 -0.531233258
0.382572048 -0.759681369 -0.531233258
0.475228113 -0.705432771 -0.531233258
0.560311781 -0.63994364 -0.531233258
0.636467307 -0.564257495 -0.531233258
0.702481213 -0.479580338 -0.531233258
0.757301616 -0.387261433 -0.531233258
0.800054995 -0.288771812 -0.531233258
0.830060108 -0.185680833 -0.531233258
0.846838846 -0.079631171 -0.531233258
0.808481974 0 -0.584878402
0.801353542 0.107124247 -0.584878402
0.780093947 0.212359452 -0.584878402
0.745078084 0.313849886 -0.584878402
0.696923428 0.409805855 -0.584878402
0.636479142 0.498535259 -0.584878402
0.564811109 0.578473434 -0.584878402
0.483183131 0.648210741 -0.584878402
0.393034645 0.706517425 -0.584878402
0.29595534 0.752365297 -0.584878402
0.193657124 0.784945872 -0.584878402
0.087943935 0.803684619 -0.584878402
-0.019320067 0.808251098 -0.584878402
-0.126243376 0.798564783 -0.584878402
-0.230940495 0.774796483 -0.584878402
-0.331565183 0.737365332 -0.584878402
-0.426343011 0.686931394 -0.584878402
-0.513602657 0.624384027 -0.584878402
-0.591805374 0.5508262 -0.584878402
-0.659572125 0.467555039 -0.584878402
-0.715707905 0.376038958 -0.584878402
-0.759222807 0.277891762 -0.584878402
-0.789349487 0.174844191 -0.584878402
-0.805556685 0.068713396 -0.584878402
-0.807558602 -0.038629099 -0.584878402
-0.795319937 -0.145290403 -0.584878402
-0.769056507 -0.24938964 -0.584878402
-0.729231444 -0.349091111 -0.584878402
-0.67654703 -0.442636668 -0.584878402
-0.611932305 -0.528376718 -0.584878402
-0.536526696 -0.604799312 -0.584878402
-0.451659911 -0.670556804 -0.584878402
-0.358828503 -0.724489619 -0.584878402
-0.259669472 -0.7656467 -0.584878402
-0.155931398 -0.793302277 -0.584878402
-0.049443612 -0.806968669 -0.584878402
0.057916068 -0.806404881 -0.584878402
0.16425445 -0.791620855 -0.584878402
0.26769635 -0.762877295 -0.584878402
0.36641766 -0.720681067 -0.584878402
0.458677519 -0.665776266 -0.584878402
0.542849006 -0.599131088 -0.584878402
0.617447829 -0.521920762 -0.584878402
0.681158505 -0.435506824 -0.584878402
0.732857552 -0.341413109 -0.584878402
0.771633304 -0.241298874 -0.584878402
0.796801984 -0.136929548 -0.584878402
0.807919765 -0.030145589 -0.584878402
0.762450503 0 -0.635674076
0.754893089 0.107084984 -0.635674076
0.732370665 0.212047114 -0.635674076
0.695329716 0.312805619 -0.635674076
0.644504543 0.407363062 -0.635674076
0.580902703 0.493844935 -0.635674076
0.505785041 0.57053682 -0.635674076
0.42064069 0.635918375 -0.635674076
0.327157553 0.688693477 -0.635674076
0.227188841 0.727815911 -0.635674076
0.122716334 0.752510114 -0.635674076
0.015811097 0.762286547 -0.635674076
-0.091407579 0.756951402 -0.635674076
-0.196814191 0.736610443 -0.635674076
-0.298319155 0.70166691 -0.635674076
-0.393910237 0.652813523 -0.635674076
-0.481692437 0.591018753 -0.635674076
-0.559925561 0.51750762 -0.635674076
-0.627058713 0.433737409 -0.635674076
-0.681761046 0.341368783 -0.635674076
-0.72294814 0.242232858 -0.635674076
-0.7498035 0.138294906 -0.635674076
-0.761794747 0.031615394 -0.635674076
-0.758684166 -0.075690862 -0.635674076
-0.74053342 -0.181496622 -0.635674076
-0.707702331 -0.28370439 -0.635674076
-0.660841742 -0.380287999 -0.635674076
-0.600880618 -0.469332774 -0.635674076
-0.52900763 -0.54907349 -0.635674076
-0.446647588 -0.617929367 -0.635674076
-0.355433198 -0.674535404 -0.635674076
-0.257172697 -0.717769444 -0.635674076
-0.153814001 -0.746774413 -0.635674076
-0.047406094 -0.760975317 -0.635674076
0.059941592 -0.760090637 -0.635674076
0.166100995 -0.74413791 -0.635674076
0.26896761 -0.713433385 -0.635674076
0.366502207 -0.668585748 -0.635674076
0.456771261 -0.610484058 -0.635674076
0.537985275 -0.540280126 -0.635674076
0.608534263 -0.459365673 -0.635674076
0.66701966 -0.369344749 -0.635674076
0.712282051 -0.272001931 -0.635674076
0.743424154 -0.169266943 -0.635674076
0.759828607 -0.063176405 -0.635674076
0.71270445 0 -0.68337281
0.704621469 0.107033724 -0.68337281
0.68055587 0.211639649 -0.68337281
0.641053521 0.311445045 -0.68337281
0.587010437 0.404186071 -0.68337281
0.519652454 0.487759121 -0.68337281
0.440507423 0.560268546 -0.68337281
0.351370556 0.620069646 -0.68337281
0.254263705 0.665805979 -0.68337281
0.151389502 0.696440128 -0.68337281
0.045081398 0.711277232 -0.68337281
-0.062249268 0.709980748 -0.68337281
-0.168167961 0.692580082 -0.68337281
-0.270272174 0.659469928 -0.68337281
-0.366245922 0.611401307 -0.68337281
-0.453912275 0.549464539 -0.68337281
-0.531282736 0.475064509 -0.68337281
-0.596602344 0.3898888 -0.68337281
-0.648389484 0.295869415 -0.68337281
-0.68546949 0.195138954 -0.68337281
-0.707001294 0.089982242 -0.68337281
-0.712496498 -0.017215498 -0.68337281
-0.701830458 -0.124022746 -0.68337281
-0.675245106 -0.228016841 -0.68337281
-0.633343467 -0.32683893 -0.68337281
-0.577075976 -0.418247475 -0.68337281
-0.507718926 -0.500169097 -0.68337281
-0.42684551 -0.570745604 -0.68337281
-0.336290145 -0.628376139 -0.68337281
-0.238106859 -0.671753494 -0.68337281
-0.134522699 -0.699893761 -0.68337281
-0.027887221 -0.712158645 -0.68337281
0.079380811 -0.708269949 -0.68337281
0.184848283 -0.688315876 -0.68337281
0.286122923 -0.652749038 -0.68337281
0.380907562 -0.60237618 -0.68337281
0.467052243 -0.538339888 -0.68337281
0.542602983 -0.46209267 -0.68337281
0.605846099 -0.375364007 -0.68337281
0.655347074 -0.280121127 -0.68337281
0.6899831 -0.178524383 -0.68337281
0.708968542 -0.072878249 -0.68337281
0.659486173 0 -0.727742221
0.650753701 0.106965565 -0.727742221
0.624787546 0.211098398 -0.727742221
0.582275361 0.309640786 -0.727742221
0.524342979 0.399983065 -0.727742221
0.452524605 0.479732731 -0.727742221
0.36872218 0.546777803 -0.727742221
0.275155014 0.599342749 -0.727742221
0.174301013 0.636035509 -0.727742221
0.068831059 0.655884363 -0.727742221
-0.038461724 0.658363659 -0.727742221
-0.144735938 0.64340774 -0.727742221
-0.247177161 0.611412678 -0.727742221
-0.343072477 0.563225787 -0.727742221
-0.429882324 0.500123184 -0.727742221
-0.505307748 0.423775992 -0.727742221
-0.567351282 0.336206089 -0.727742221
-0.61436985 0.239732557 -0.727742221
-0.645118276 0.136910271 -0.727742221
-0.658782258 0.030462238 -0.727742221
-0.65499994 -0.076792516 -0.727742221
-0.633871486 -0.1820136 -0.727742221
-0.595956435 -0.282414482 -0.727742221
-0.542258877 -0.375336279 -0.727742221
-0.474200866 -0.458318176 -0.727742221
-0.393584759 -0.529162593 -0.727742221
-0.302545483 -0.585993381 -0.727742221
-0.203494001 -0.62730551 -0.727742221
-0.099053458 -0.652004926 -0.727742221
0.008010283 -0.659437523 -0.727742221
0.11486189 -0.649406466 -0.727742221
0.21867165 -0.622177403 -0.727742221
0.316690405 -0.578471433 -0.727742221
0.406322358 -0.519446006 -0.727742221
0.485193818 -0.44666427 -0.727742221
0.551216059 -0.362053681 -0.727742221
0.602640637 -0.26785495 -0.727742221
0.638105693 -0.16656271 -0.727742221
0.656672018 -0.060859447 -0.727742221
0.603054945 0 -0.768566145
0.593509466 0.106872728 -0.768566145
0.565175212 0.210362177 -0.768566145
0.518949163 0.307192174 -0.768566145
0.4562947 0.394297366 -0.768566145
0.379195281 0.468920255 -0.768566145
0.290091647 0.528698499 -0.768566145
0.191804559 0.571739694 -0.768566145
0.0874455 0.596681281 -0.768566145
-0.019681829 0.602733682 -0.768566145
-0.126186088 0.589705297 -0.768566145
-0.228695664 0.558008566 -0.768566145
-0.323965404 0.508646914 -0.768566145
-0.408979347 0.443182987 -0.768566145
-0.481046198 0.363689183 -0.768566145
-0.537884533 0.272682041 -0.768566145
-0.577695015 0.173042583 -0.768566145
-0.599217362 0.067925103 -0.768566145
-0.601770238 -0.039342687 -0.768566145
-0.585272827 -0.145365003 -0.768566145
-0.550247389 -0.246785488 -0.768566145
-0.497802727 -0.340393466 -0.768566145
-0.429599085 -0.423225581 -0.768566145
-0.347795592 -0.492659611 -0.768566145
-0.254981907 -0.546497478 -0.768566145
-0.15409624 -0.583034832 -0.768566145
-0.048332336 -0.601115007 -0.768566145
0.058961628 -0.600165638 -0.768566145
0.16438904 -0.580216778 -0.768566145
0.264612374 -0.541899951 -0.768566145
0.356458855 -0.486428156 -0.768566145
0.43702089 -0.415557467 -0.768566145
0.50374812 -0.331531443 -0.768566145
0.554528158 -0.237010102 -0.768566145
0.587753454 -0.134985714 -0.768566145
0.602372194 -0.028688073 -0.768566145
0.543685693 0 -0.805645691
0.533104322 0.106742282 -0.805645691
0.501772084 0.209329665 -0.805645691
0.450908574 0.303768977 -0.805645691
0.382493633 0.386384205 -0.805645691
0.299190284 0.453959588 -0.805645691
0.204241076 0.50386478 -0.805645691
0.101341868 0.534157242 -0.805645691
-0.00550203 0.543657853 -0.805645691
-0.112131764 0.531996805 -0.805645691
-0.214396816 0.499628 -0.805645691
-0.308316559 0.447811381 -0.805645691
-0.390235207 0.378563887 -0.805645691
-0.456964109 0.29458095 -0.805645691
-0.505905872 0.19913157 -0.805645691
-0.535155456 0.095931075 -0.805645691
-0.543574334 -0.011003497 -0.805645691
-0.530834804 -0.117509762 -0.805645691
-0.497432747 -0.219442009 -0.805645691
-0.444668325 -0.312832565 -0.805645691
-0.374595371 -0.394046242 -0.805645691
-0.289941446 -0.459921831 -0.805645691
-0.19400167 -0.507895152 -0.805645691
-0.090510458 -0.536098862 -0.805645691
0.016503837 -0.543435145 -0.805645691
0.122875726 -0.529618437 -0.805645691
0.224464728 -0.49518655 -0.805645691
0.317316533 -0.441479729 -0.805645691
0.397816922 -0.370588491 -0.805645691
0.462832451 -0.285272249 -0.805645691
0.509832416 -0.188851901 -0.805645691
0.536987365 -0.085080571 -0.805645691
0.48166766 0 -0.838800213
0.469734521 0.106551464 -0.838800213
0.434526383 0.207823381 -0.838800213
0.377787782 0.298797803 -0.838800213
0.302330074 0.374967013 -0.838800213
0.211892134 0.432556885 -0.838800213
0.110955095 0.468713881 -0.838800213
0.004520313 0.481646449 -0.838800213
-0.102138448 0.47071379 -0.838800213
-0.203736324 0.43645761 -0.838800213
-0.295239215 0.380575277 -0.838800213
-0.37211322 0.305835718 -0.838800213
-0.430549289 0.215942225 -0.838800213
-0.467651958 0.115348954 -0.838800213
-0.481582817 0.009040227 -0.838800213
-0.471651601 -0.097716436 -0.838800213
-0.438350397 -0.199631322 -0.838800213
-0.383329252 -0.291654623 -0.838800213
-0.309314426 -0.369226653 -0.838800213
-0.219973297 -0.428503773 -0.838800213
-0.119732654 -0.466548847 -0.838800213
-0.013559346 -0.481476769 -0.838800213
0.093285818 -0.472547872 -0.838800213
0.195508738 -0.440204575 -0.838800213
0.288044345 -0.386049466 -0.838800213
0.366307566 -0.312765891 -0.838800213
0.426420517 -0.223984995 -0.838800213
0.465404645 -0.124105808 -0.838800213
0.481328316 -0.01807727 -0.838800213
0.417302991 0 -0.867868185
0.40354827 0.106257142 -0.867868185
0.363190845 0.205509602 -0.867868185
0.298891157 0.291214461 -0.867868185
0.214887971 0.357721884 -0.867868185
0.116718943 0.400647569 -0.867868185
0.01085557 0.41716177 -0.867868185
-0.095723424 0.406175839 -0.867868185
-0.195992139 0.368413989 -0.867868185
-0.283340664 0.306365557 -0.867868185
-0.352010808 0.224120899 -0.867868185
-0.397475701 0.127101745 -0.867868185
-0.416738205 0.021703792 -0.867868185
-0.408528499 -0.085124918 -0.867868185
-0.373387782 -0.186342025 -0.867868185
-0.313632601 -0.275275094 -0.867868185
-0.233202136 -0.346061483 -0.867868185
-0.137398522 -0.394034811 -0.867868185
-0.032537325 -0.416032581 -0.867868185
0.074468798 -0.410604657 -0.867868185
0.176565789 -0.378108858 -0.867868185
0.267023213 -0.320687371 -0.867868185
0.339877935 -0.242125536 -0.867868185
0.390327229 -0.147602304 -0.867868185
0.415045377 -0.043348835 -0.867868185
0.350905263 0 -0.89270799
0.334585332 0.105769367 -0.89270799
0.287143558 0.201700473 -0.89270799
0.212992791 0.278870175 -0.89270799
0.119030252 0.330100443 -0.89270799
0.013995976 0.350626035 -0.89270799
-0.092340153 0.338537738 -0.89270799
-0.190087154 0.294959959 -0.89270799
-0.270152978 0.223946137 -0.89270799
-0.325090208 0.132101704 -0.89270799
-0.349788795 0.027969677 -0.89270799
-0.341951369 -0.078763981 -0.89270799
-0.302306939 -0.178171317 -0.89270799
-0.234543078 -0.26100584 -0.89270799
-0.144962919 -0.319562601 -0.89270799
-0.041898866 -0.348394875 -0.89270799
0.065062459 -0.344820794 -0.89270799
0.165971924 -0.309172806 -0.89270799
0.251443317 -0.24476675 -0.89270799
0.313526418 -0.15759343 -0.89270799
0.346446494 -0.055761373 -0.89270799
0.28279796 0 -0.913198611
0.262633003 0.104874171 -0.913198611
0.205013865 0.194792201 -0.913198611
0.118157629 0.256930849 -0.913198611
0.014450893 0.282428501 -0.913198611
-0.091316689 0.267648928 -0.913198611
-0.184061567 0.21469985 -0.913198611
-0.250557363 0.131132354 -0.913198611
-0.281321087 0.028864028 -0.913198611
-0.271965516 -0.077520607 -0.913198611
-0.22382485 -0.172850001 -0.913198611
