# .PCD v.5 - Point Cloud Data file format
VERSION .5
FIELDS x y z
SIZE 4 4 4
TYPE F F F
COUNT 1 1 1
WIDTH 1587
HEIGHT 1
POINTS 1587
DATA ascii
0.01274738	0.1702849	0.5321749
0.6272282	0.1702884	0.01089696
0.1613743	0.1703015	0.01472052
0.6502419	0.1703113	0.01798088
0.760055	0.1703144	0.1740464
0.263409	0.1704212	0.4903637
0.262838	0.170327	0.4915884
0.8264358	0.1703315	0.1525339
0.7594321	0.1703319	0.1752048
0.8141457	0.1703359	0.1150258
0.2649848	0.1703363	0.4876044
0.05285848	0.1703454	0.3144436
0.6086041	0.1703808	0.5165207
0.761428	0.1703833	0.172797
0.2374071	0.170384	0.1184001
0.233733	0.1703898	0.0991169
0.5729381	0.1703937	0.02185795
0.08663297	0.1704058	0.2371828
0.2101009	0.1704098	0.0766707
0.03115557	0.1704133	0.5784813
0.1628696	0.1704155	0.01248941
0.05803302	0.170427	0.43369
0.3077712	0.1704274	0.4924187
0.2641021	0.1705017	0.4889282
0.2645349	0.1704341	0.4882601
0.6682247	0.1704361	0.4825056
0.3507329	0.1704391	0.01932836
0.06471351	0.1704406	0.428574
0.04759386	0.1704454	0.4408597
0.824176	0.1704522	0.1652943
0.8196454	0.1704588	0.1236279
0.1603932	0.1704862	0.01794435
0.7573125	0.1705058	0.3255701
0.04433013	0.1705094	0.6515907
0.5848788	0.1705095	0.01386217
0.7620393	0.1705163	0.1726913
0.5610591	0.1705275	0.03059893
0.7606183	0.170529	0.1739002
0.3535648	0.1705375	0.4832393
0.2373601	0.170539	0.1271439
0.5990167	0.1705447	0.009916356
0.8079957	0.1705542	0.106907
0.793143	0.1705757	0.1820286
0.7443197	0.1705888	0.05584922
0.3310676	0.1705946	0.007340733
0.7599529	0.1705964	0.1750405
0.7594341	0.1705988	0.1761967
0.6296809	0.1706093	0.5051472
0.7626586	0.1706209	0.1726008
0.6997074	0.1706271	0.04487747
0.262102	0.1706313	0.5129176
0.7670698	0.1706475	0.1723729
0.2170234	0.1706574	0.6629501
0.7387172	0.170659	0.3872651
0.2298698	0.1706665	0.09179798
0.7372742	0.1706784	0.05323199
0.2251828	0.170689	0.6000789
0.01566395	0.1706903	0.4740639
0.763284	0.1706982	0.1725258
0.259155	0.170702	0.5300858
0.2235304	0.1707116	0.157262
0.2197589	0.170713	0.08243307
0.7611946	0.1707141	0.1737662
0.1129868	0.1707288	0.6765183
0.3562708	0.1707343	0.02411158
0.197991	0.1707409	0.07011645
0.6861843	0.1707423	0.03682524
0.7639136	0.1707494	0.1724663
0.7658114	0.1707555	0.1723737
0.8156461	0.1707559	0.1773232
0.7645457	0.1707754	0.1724218
0.7651788	0.1707771	0.1723912
0.162548	0.1707839	0.01304159
0.8077354	0.1707876	0.1812784
0.2625557	0.1707937	0.4992435
0.3412711	0.170807	0.0114718
0.2185268	0.1708136	0.6597615
0.181338	0.1708197	0.6759969
0.1633887	0.1708238	0.03578306
0.1670426	0.1708309	0.04445041
0.7604884	0.1708327	0.1748859
0.7174377	0.1708403	0.05015423
0.2200903	0.1708418	0.6480958
0.2373153	0.1708419	0.1267606
0.7340574	0.170845	0.3987502
0.02423435	0.1708462	0.4597301
0.7617822	0.1708697	0.1736455
0.7599295	0.1708765	0.1760282
0.7595029	0.1708848	0.1771769
0.4210349	0.170902	0.5026988
0.2609665	0.1709094	0.5222807
0.05280763	0.1709138	0.3660737
0.6406983	0.1709209	0.01330575
0.6859227	0.1709279	0.03659813
0.2289895	0.1709319	0.5861447
0.3569968	0.1709369	0.4830971
0.0493725	0.1709453	0.4393992
0.1667548	0.170961	0.009504867
0.06505564	0.1709876	0.4278006
0.06872211	0.1710074	0.4215974
0.1610751	0.1710094	0.01601654
0.0498521	0.1710104	0.331588
0.2806389	0.1710215	0.4851737
0.2347278	0.1710217	0.5747326
0.7610382	0.1710394	0.1747423
0.06004121	0.171042	0.2768291
0.625133	0.1710524	0.5071659
0.2149731	0.171064	0.6658234
0.2373785	0.1710752	0.1212149
0.03404729	0.1710899	0.4505596
0.7031463	0.1710902	0.04612261
0.2365439	0.1710933	0.1341036
0.1723067	0.1711066	0.05186575
0.7604388	0.1711297	0.1758679
0.1622698	0.1711487	0.01361944
0.5630656	0.1711505	0.02895691
0.1609303	0.1716946	0.01738053
0.1604365	0.1711508	0.01937637
0.7596256	0.1712043	0.1781469
0.3604394	0.1712165	0.483173
0.7616007	0.1712166	0.1746106
0.7614567	0.1712197	0.2158844
0.2285941	0.1712221	0.08992556
0.7699491	0.1712262	0.1740806
0.6354269	0.1712274	0.01192646
0.7589504	0.1712381	0.1803846
0.01737226	0.1712384	0.4702902
0.7138502	0.1712604	0.04928077
0.1723303	0.1712624	0.007511859
0.6904838	0.171273	0.4642116
0.2132543	0.1712752	0.1604313
0.7592189	0.1712774	0.1796359
0.6207465	0.1712855	0.5095438
0.2491816	0.1713056	0.5540614
0.1611496	0.1713116	0.02644645
0.6162244	0.1713119	0.5120263
0.6745663	0.1713214	0.030521
0.2213552	0.1713267	0.6342425
0.1662144	0.1713292	0.009878427
0.1644155	0.1713324	0.1746095
0.2213682	0.1713454	0.6342087
0.7609617	0.1713568	0.1757169
0.7066623	0.1713587	0.04726973
0.1039482	0.1713604	0.6754058
0.2245218	0.1713623	0.6064156
0.7621744	0.1713649	0.1744914
0.3638767	0.1713841	0.4834758
0.3931996	0.1713864	0.4925043
0.178833	0.1713916	0.05789045
0.7589233	0.1713945	0.1812665
0.2351896	0.1713982	0.1403687
0.0310171	0.1714235	0.5806453
0.710241	0.1714277	0.04832469
0.7604622	0.1714323	0.1768415
0.768768	0.1714382	0.1740363
0.02858862	0.1714396	0.5666896
0.05920015	0.17144	0.4325319
0.2275052	0.1714405	0.1543634
0.06872013	0.1714578	0.4206545
0.8243134	0.1714597	0.1326324
0.3052783	0.1714619	0.4927174
0.8272212	0.1714825	0.161086
0.06741084	0.1714844	0.2588706
0.7627576	0.1714851	0.1743854
0.1620343	0.1715093	0.01422131
0.0653502	0.171512	0.4269896
0.2097648	0.1715232	0.6697094
0.5865827	0.1715317	0.01270683
0.8263062	0.1715333	0.1650449
0.2631726	0.1715444	0.4967603
0.7299049	0.1715546	0.0507323
0.7614977	0.1715558	0.1755767
0.3050491	0.1715571	0.4927449
0.7589471	0.1715701	0.1821707
0.7633486	0.171578	0.1742931
0.3673314	0.1715811	0.4837837
0.7675719	0.1715968	0.1740168
0.02754476	0.1715991	0.4562813
0.7598277	0.1716053	0.1791267
0.2292327	0.1716372	0.1525961
0.7639459	0.1716451	0.1742145
0.2333373	0.1716578	0.1459233
0.6474664	0.1716617	0.01617853
0.760961	0.1716727	0.1766856
0.7645477	0.1716883	0.1741496
0.7651523	0.1717091	0.1740982
0.7663641	0.17169	0.1740345
0.1657053	0.1716999	0.01028023
0.2036494	0.1717026	0.6720976
0.8124396	0.1717031	0.181039
0.2318944	0.1717057	0.5802691
0.02962533	0.1717059	0.4542961
0.6300007	0.1717105	0.01128785
0.2293843	0.1717181	0.5859395
0.7620461	0.1717255	0.1754482
0.07614873	0.1717257	0.2478488
0.7589848	0.1717295	0.1830762
0.2307866	0.1717316	0.1506157
0.6894124	0.1717392	0.03794173
0.2321728	0.1717402	0.1484073
0.7605497	0.1717532	0.1778064
0.0547938	0.1717653	0.3017368
0.2272006	0.1717804	0.0881403
0.02660926	0.1717839	0.4572368
0.1606041	0.1717895	0.02084
0.2312331	0.1718154	0.5816667
0.4245478	0.1718162	0.5045803
0.8253035	0.1718235	0.1685875
0.06355673	0.1718317	0.2656377
0.01935184	0.171854	0.4666733
0.06865747	0.1718608	0.4196922
0.2635659	0.1718614	0.495529
0.16184	0.1718649	0.01484533
0.7626055	0.1718666	0.1753319
0.1919458	0.1718751	0.6746766
0.8242464	0.1718811	0.1702867
0.2306116	0.1718841	0.5830772
0.3498708	0.1718859	0.01801751
0.7614722	0.1718884	0.176539
0.2372366	0.1719074	0.119357
0.2300578	0.1719088	0.5845116
0.1709648	0.1719302	0.007890228
0.6762877	0.1719318	0.4768342
0.7939024	0.1719438	0.1837375
0.8229295	0.1719529	0.1724034
0.7631742	0.1719801	0.1752282
0.6426667	0.1719877	0.01389555
0.7590957	0.1719983	0.1848898
0.8283354	0.1720291	0.1520496
0.821351	0.172039	0.1749407
0.3383204	0.1720612	0.4885232
0.1652294	0.1720716	0.01071025
0.199901	0.1720765	0.07040255
0.7619954	0.1720782	0.1764027
0.05061164	0.1720812	0.4386015
0.4360111	0.1720955	0.5100546
0.4058485	0.1720976	0.4975539
0.7606901	0.1721053	0.1787639
0.260493	0.1721134	0.5271673
0.2205353	0.1721213	0.6528268
0.02572909	0.1721239	0.458161
0.2676347	0.1721267	0.4881176
0.2640124	0.1721374	0.494305
0.08208964	0.1721452	0.2412245
0.02300914	0.1721551	0.6120636
0.2183405	0.1721595	0.6617974
0.02045389	0.1721874	0.4649365
0.7603084	0.1722056	0.1802224
0.1616857	0.172215	0.01548959
0.759235	0.1722196	0.1867038
0.7753044	0.1722253	0.1776045
0.7615165	0.1722269	0.177495
0.8202047	0.1722295	0.1765633
0.7625297	0.1722406	0.1762778
0.7599974	0.1722419	0.1809354
0.4414039	0.1722475	0.03072141
0.02300717	0.1722495	0.6101913
0.0407346	0.1722687	0.6493551
0.01008078	0.1722708	0.4905391
0.2589242	0.1722749	0.5331879
0.1617125	0.1722783	0.0282806
0.2671484	0.1722888	0.4887024
0.8041157	0.1723124	0.184478
0.6375214	0.1723202	0.01228517
0.8195159	0.172344	0.1775383
0.2065402	0.1723457	0.07377523
0.2371886	0.1723497	0.1196418
0.2257146	0.172354	0.08643041
0.513019	0.1723637	0.03256093
0.02310753	0.1723674	0.6083257
0.7639722	0.1723717	0.266499
0.2645037	0.172372	0.4930918
0.7630747	0.1723746	0.1761651
0.4299683	0.1723811	0.507304
0.2165181	0.1723868	0.6647862
0.1608766	0.1724123	0.02231573
0.6875153	0.172417	0.4678425
0.3563141	0.1724187	0.02366133
0.2666743	0.1724235	0.489301
0.7620168	0.17243	0.1773529
0.08236419	0.1724326	0.6706069
0.2371588	0.172437	0.12423
0.03067404	0.1724415	0.5827941
0.1647889	0.1724433	0.01116847
0.2607557	0.1724529	0.5265408
0.6928989	0.1724544	0.03936161
0.04147854	0.1724577	0.4451772
0.0602819	0.1724595	0.431289
0.03201876	0.1724727	0.4522263
0.7636287	0.1724815	0.1760647
0.7286324	0.1724997	0.4105795
0.4269282	0.1725001	0.5059754
0.0578678	0.1725121	0.2852476
0.2351741	0.1725129	0.1038738
0.2650685	0.1725134	0.4919185
0.2784015	0.1725176	0.4861862
0.2662176	0.1725253	0.4899153
0.7609107	0.1725332	0.1797322
0.02162192	0.1725351	0.463245
0.1903513	0.1725397	0.1653313
0.3180822	0.1725495	0.4947275
0.06838366	0.1725519	0.417728
0.7682082	0.1725523	0.1756863
0.16157	0.1725592	0.01615222
0.7641901	0.1725626	0.1759766
0.03903344	0.1725639	0.4469016
0.7616228	0.1725814	0.178446
0.2657872	0.1725874	0.4905491
0.5883613	0.172599	0.011736
0.762528	0.1726087	0.177221
0.7595419	0.1726115	0.1903246
0.02488665	0.1726165	0.4590575
0.7647575	0.1726197	0.1759007
0.2368656	0.1726245	0.1149265
0.1696728	0.1726265	0.00836545
0.060445	0.1726294	0.2732145
0.7670571	0.1726414	0.1757145
0.7224789	0.1726445	0.04859514
0.7659037	0.1726683	0.1757848
0.7653291	0.1726544	0.1758368
0.7907609	0.1726777	0.1842209
0.02363704	0.1726787	0.6046392
0.04642744	0.1731646	0.4414271
0.04401289	0.1727231	0.443359
0.7750175	0.1727335	0.07207428
0.7630493	0.172762	0.1771001
0.7732479	0.172766	0.1774881
0.6803943	0.1727756	0.4741378
0.759712	0.1727923	0.1921324
0.7599938	0.1728029	0.3122778
0.1643857	0.1728137	0.01165486
0.4451701	0.172818	0.03078784
0.3420311	0.1728192	0.487825
0.6031262	0.1728343	0.009631169
0.2371329	0.172863	0.1199724
0.7825228	0.1728707	0.07725332
0.7375759	0.1728732	0.3937018
0.2638784	0.1728814	0.5004091
0.05191911	0.1728857	0.4375166
0.7635801	0.1728891	0.176991
0.2287978	0.1728944	0.5898463
0.1614916	0.1728967	0.01683133
0.1654845	0.1728982	0.0390169
0.07981855	0.1728995	0.2432588
0.324838	0.1729014	0.4937579
0.01208905	0.1729139	0.4824078
0.2057768	0.1729234	0.00663565
0.7594988	0.1729271	0.06230243
0.1697847	0.1729511	0.04718897
0.7617823	0.1729643	0.1793922
0.3115097	0.1729654	0.4950252
0.7599013	0.1729656	0.1939384
0.762593	0.1729818	0.1781608
0.7641194	0.1729895	0.1768942
0.8171457	0.1730093	0.1804066
0.4120536	0.1730271	0.5002635
0.8270763	0.1730473	0.1688232
0.03672872	0.1730512	0.4485516
0.644616	0.1730536	0.01454639
0.3290789	0.1730651	0.006773545
0.02455749	0.1730782	0.6010393
0.6964343	0.1730845	0.0407637
0.8284635	0.1730916	0.1651031
0.1756835	0.1731109	0.05397139
0.8292945	0.1731123	0.1609413
0.7242721	0.173124	0.4195906
0.7614079	0.1731423	0.1808142
0.7630928	0.1731483	0.1780332
0.05499154	0.1731495	0.2980408
0.2224073	0.173158	0.6305347
0.3395879	0.1731726	0.009908219
0.5990099	0.1731779	0.5225977
0.5703786	0.1731792	0.02144193
0.1640219	0.1731815	0.01216942
0.2239408	0.1731826	0.1556467
0.7610786	0.1732039	0.1814939
0.06810397	0.1732059	0.4154754
0.1930086	0.1732088	0.06603571
0.2550793	0.1732108	0.5449048
0.7711375	0.1732122	0.1773874
0.01497038	0.173235	0.5407222
0.1625441	0.1732486	0.0300218
0.8263152	0.1732629	0.1711738
0.7897294	0.173275	0.08284923
0.2570287	0.1732856	0.005628732
0.7636017	0.1732911	0.1779166
0.7434579	0.1732939	0.0537005
0.7603508	0.1732971	0.1975428
0.07789008	0.1733121	0.2454476
0.4232674	0.1733436	0.5047826
0.1684691	0.1733469	0.008947557
0.8251013	0.1733674	0.1734647
0.7627193	0.1733681	0.1790991
0.7610039	0.1733769	0.1823083
0.7700631	0.1733872	0.1773615
0.06877031	0.1733991	0.2559231
0.7641191	0.1734097	0.1778113
0.6395995	0.1734122	0.01271147
0.7620225	0.1734186	0.1803491
0.3606194	0.1734213	0.02579876
0.03015105	0.1734246	0.5849205
0.6842235	0.1734548	0.4709565
0.03001943	0.1734565	0.5708024
0.3450926	0.1734594	0.4872406
0.0612624	0.1734637	0.42995
0.2370668	0.1734772	0.1204385
0.764644	0.1735036	0.1777179
0.05561337	0.1735052	0.660363
0.7689788	0.1735234	0.1773614
0.0257137	0.1735237	0.5975123
0.6032457	0.1735443	0.5211094
0.163699	0.1735456	0.01271181
0.1614415	0.1735494	0.01823141
0.7608404	0.1735558	0.2011452
0.7876089	0.1735607	0.1843352
0.0237269	0.1735631	0.4602315
0.7609784	0.1735633	0.1831449
0.7651755	0.1735729	0.1776366
0.7000381	0.1735786	0.04210447
0.4151216	0.1735905	0.5016692
0.2327306	0.1735985	0.09569518
0.2646587	0.1735994	0.49806
0.7678882	0.1736149	0.1773931
0.4181974	0.1736177	0.5027005
0.7657124	0.1736192	0.1775671
0.06456956	0.1736201	0.2623519
0.06732456	0.1736221	0.4127358
0.2216712	0.1736309	0.6398158
0.09254426	0.1736432	0.22631
0.7667971	0.173651	0.1774604
0.7662534	0.1736445	0.1775086
0.1741179	0.1736583	0.007222187
0.590226	0.1736834	0.01096044
0.05319219	0.1736845	0.4363874
0.2195371	0.1736965	0.6605951
0.7636882	0.1736968	0.1788417
0.7150474	0.1737036	0.04660901
0.2345187	0.1737061	0.1017012
0.3088196	0.1737168	0.4954007
0.01497101	0.1737196	0.4745596
0.7609678	0.1737313	0.1839838
0.2179619	0.1737566	0.6636857
0.7613476	0.1737641	0.2047554
0.762899	0.1737814	0.1800339
0.7358833	0.1737828	0.0504467
0.2279401	0.1737864	0.5946514
0.227788	0.1737928	0.1525643
0.2357173	0.1737958	0.1070571
0.5464651	0.1738072	0.0334631
0.05495392	0.1738191	0.3807039
0.7964912	0.1738244	0.08902434
0.7639978	0.1738259	0.2501923
0.764185	0.1738283	0.1787291
0.2130223	0.1738308	0.07674264
0.05942844	0.173834	0.3923975
0.2363332	0.1738373	0.1110552
0.8224937	0.1738373	0.1779332
0.732615	0.1738377	0.405522
0.3004505	0.1738695	0.4930025
0.8140793	0.17387	0.1841174
0.8140189	0.1738944	0.1841742
0.6817418	0.1738948	0.03296843
0.2334628	0.1738983	0.1437356
0.7037299	0.1739001	0.04334191
0.1634167	0.1739053	0.01328052
0.03456771	0.1739141	0.450156
0.245764	0.1739229	0.5612651
0.02792493	0.1739232	0.4558549
0.6343239	0.1739281	0.01189737
0.1106406	0.1739291	0.2066851
0.06642304	0.1739325	0.4097699
0.7646894	0.173937	0.1786278
0.2370157	0.1739441	0.1209046
0.02698183	0.1739442	0.5940241
0.06170139	0.1739511	0.4292382
0.229479	0.1739556	0.1507334
0.2586766	0.1739623	0.536516
0.7640605	0.1739626	0.242593
0.6073955	0.1739645	0.5193728
0.7620848	0.1739694	0.2082526
0.2761887	0.1739813	0.4873244
0.8163335	0.173991	0.1121379
0.2207682	0.1739976	0.6572653
0.2323457	0.174002	0.1463366
0.7609887	0.1740056	0.185669
0.7652004	0.174023	0.178538
0.02694689	0.1740257	0.4568118
0.1537231	0.1740265	0.1784677
0.2310248	0.1740327	0.1486871
0.1816096	0.1740385	0.1671567
0.7074952	0.174042	0.04448614
0.7624891	0.1740634	0.181396
0.16737	0.1740824	0.009640724
0.5741592	0.1740848	0.01781235
0.7657173	0.1740865	0.1784598
0.0372741	0.1740882	0.6469631
0.3563379	0.1740907	0.02314351
0.215703	0.174096	0.1584777
0.8222078	0.1740985	0.1211051
0.7638358	0.1741144	0.1797675
0.7621912	0.1741228	0.1820628
0.02913117	0.1741258	0.5870059
0.8002977	0.1741299	0.1872051
0.06415632	0.1741361	0.4039591
0.05282417	0.1741402	0.3748427
0.2644699	0.1741504	0.5038147
0.1615234	0.1741717	0.01967339
0.161817	0.1741903	0.02494603
0.01672167	0.1741929	0.4707793
0.03007937	0.1741965	0.4538476
0.3486391	0.174201	0.4865636
0.7610438	0.1742221	0.1873591
0.6574665	0.1742265	0.02098812
0.7195748	0.1742361	0.428542
0.1631742	0.1742597	0.01387374
0.7631604	0.174261	0.1809794
0.2369796	0.1742644	0.1213309
0.02827514	0.1742647	0.5905364
0.06108396	0.1742837	0.2696642
0.02602622	0.1742841	0.4577359
0.8027544	0.1745865	0.09574923
0.8097265	0.1742898	0.1037331
0.762094	0.1743061	0.1828416
0.2339054	0.1743082	0.09958332
0.1727435	0.1743187	0.007538651
0.02890665	0.1743441	0.588786
0.2218936	0.1743457	0.6452251
0.2332942	0.1743552	0.09762014
0.0553748	0.1743644	0.2941256
0.7647989	0.1743741	0.1795388
0.2316214	0.1743857	0.09374859
0.8290195	0.1743888	0.1690816
0.0620991	0.174422	0.4284938
0.1668649	0.1744527	0.0100298
0.2333963	0.174455	0.006684158
0.03055803	0.1744594	0.5729145
0.7652904	0.1744724	0.1794411
0.05441882	0.1744784	0.4352055
0.04794888	0.1744841	0.3544323
0.2623278	0.1744842	0.5227922
0.261026	0.174504	0.5294876
0.6416594	0.1745044	0.01321067
0.7698768	0.1745158	0.1790295
0.7657879	0.1745494	0.1793549
0.2034462	0.1745555	0.07093357
0.7640372	0.1745572	0.1806908
0.5489896	0.1745573	0.03288803
0.5761512	0.1745727	0.01612413
0.2638423	0.1745815	0.5140185
0.7611831	0.1745977	0.1907371
0.7662905	0.1746056	0.1792799
0.1629706	0.1746082	0.01448964
0.7688486	0.1746104	0.1790597
0.2270721	0.1746332	0.600421
0.5619976	0.174637	0.5305008
0.2750906	0.1746399	0.4879909
0.7667972	0.1746416	0.1792159
0.7678198	0.1746573	0.1791196
0.819633	0.1746574	0.1821928
0.7673073	0.1746583	0.1791628
0.7281481	0.1746676	0.04776489
0.7620087	0.1746754	0.184447
0.3519309	0.1746842	0.4862355
0.02514206	0.1746953	0.4586215
0.2465092	0.174709	0.5608476
0.01871862	0.1747289	0.4671399
0.1617208	0.1747735	0.0211354
0.5921664	0.1747805	0.0103804
0.199951	0.1747824	0.06890297
0.1788203	0.1748217	0.006640981
0.764969	0.1748218	0.1804523
0.1663922	0.174823	0.01044766
0.6241399	0.175033	0.5100319
0.628698	0.1748337	0.507806
0.1762757	0.1748374	0.1682476
0.7637022	0.1748393	0.1820549
0.8312746	0.1748417	0.1607553
0.7747028	0.1748471	0.1807744
0.8286112	0.1748528	0.1716279
0.2305804	0.1748598	0.09166007
0.1678836	0.1749198	0.04207395
0.6152108	0.1749274	0.5151197
0.1628052	0.1749502	0.01512641
0.1729124	0.1749538	0.0496071
0.7619815	0.1749597	0.1860652
0.5233659	0.1749763	0.03305183
0.2651905	0.1749796	0.5015624
0.1792859	0.1749845	0.05582129
0.2234577	0.1749901	0.6268212
0.827518	0.1749966	0.1741203
0.7633331	0.1749975	0.1826444
0.1714325	0.1750078	0.007944573
0.7659218	0.1750163	0.1802525
0.6364847	0.1750365	0.01220201
0.05086925	0.1750452	0.3693156
0.7407262	0.1750548	0.388485
0.7643212	0.1750604	0.1816254
0.3121068	0.1750667	0.4968041
0.7664059	0.1750839	0.1801693
0.02344266	0.1750848	0.4605123
0.1824762	0.175097	0.1663281
0.02213381	0.1751152	0.60884
0.3876294	0.175124	0.02902594
0.1500507	0.1751311	0.6797095
0.03248684	0.1751317	0.451748
0.7668945	0.1751319	0.1800974
0.8271271	0.1751643	0.1305519
0.648488	0.1751749	0.01596437
0.2192745	0.1751785	0.6625308
0.164449	0.1751865	0.03337754
0.6892447	0.1751874	0.03551473
0.7632144	0.1751917	0.1833866
0.165954	0.175192	0.01089463
0.007841773	0.1751921	0.4993368
0.3553937	0.1751924	0.4858903
0.2740115	0.1752001	0.4887678
0.5781823	0.1752297	0.01444058
0.7728168	0.1752342	0.1806984
0.8263441	0.1752475	0.1765719
0.02427954	0.1752581	0.45948
0.7640054	0.1752641	0.2983618
0.0506207	0.1752651	0.3093811
0.05559031	0.1752731	0.4339697
0.0465351	0.1752736	0.3367865
0.5514127	0.175276	0.03202553
0.1626771	0.1752848	0.01578224
0.2014541	0.1752909	0.6735223
0.7651936	0.1752924	0.1813647
0.4216403	0.1752925	0.5050164
0.8105358	0.175305	0.1874435
0.06277133	0.1753069	0.4269098
0.02237279	0.1753133	0.6069706
0.2294308	0.1753169	0.08962726
0.02098478	0.1753278	0.4636709
0.04840795	0.1753368	0.3185467
0.1862644	0.1753496	0.06068366
0.2096619	0.1753861	0.07390412
0.7718616	0.1753937	0.1806836
0.7631409	0.1753945	0.1841513
0.05843397	0.1754012	0.2777153
0.3380499	0.1754154	0.4911603
0.2261338	0.1754414	0.6070781
0.273483	0.1754432	0.4891957
0.7447295	0.175455	0.376879
0.03092583	0.1754583	0.5750605
0.06586336	0.1754668	0.2592031
0.7661157	0.1754921	0.1811546
0.7145896	0.1755125	0.4373098
0.7709001	0.1755263	0.1806878
0.008919388	0.1755309	0.4909486
0.7649348	0.1755353	0.2404624
0.02273027	0.1755398	0.6051243
0.5798876	0.1755506	0.5287561
0.3270539	0.1755514	0.00651536
0.1655522	0.1755585	0.01137106
0.3579129	0.1755622	0.4856392
0.3377616	0.1755685	0.008584237
0.763081	0.1755781	0.1849197
0.2217801	0.1755781	0.6559641
0.7814139	0.1755817	0.1842842
0.8250963	0.1755886	0.1789789
0.1385664	0.1755932	0.6793255
0.6437019	0.1755955	0.01378277
0.7648984	0.1756044	0.1827046
0.1625854	0.1756113	0.01645532
0.5525772	0.1756161	0.03148344
0.2243639	0.1756214	0.1540138
0.3588561	0.1756241	0.4856933
0.7670539	0.175626	0.1809831
0.7699344	0.175627	0.1807136
0.7362211	0.1756295	0.4003857
0.2238377	0.175653	0.6254777
0.2584269	0.1756639	0.5398719
0.2729623	0.1756647	0.4896455
0.7675286	0.1756658	0.1809137
0.7689684	0.1756849	0.1807671
0.2661065	0.1756879	0.4993435
0.7684866	0.175694	0.1808064
0.7680064	0.175688	0.180855
0.8318466	0.1757021	0.1510392
0.7203687	0.1757038	0.04539587
0.1701986	0.1757217	0.008450975
0.03434177	0.1757221	0.6443654
0.03955405	0.1757332	0.44634
0.2426485	0.1757388	0.5668395
0.3475724	0.1757431	0.01452254
0.3560353	0.175754	0.0223417
0.1844254	0.1757693	0.6767516
0.2281309	0.1757738	0.08768834
0.2314237	0.1757782	0.5848798
0.6929943	0.1757785	0.03692378
0.3057677	0.1757825	0.008212852
0.04689302	0.1760726	0.4408302
0.04200488	0.175801	0.4445368
0.1071963	0.1758073	0.6771393
0.765502	0.1758169	0.1822888
0.2354155	0.1758171	0.1356531
0.7645014	0.1758271	0.1832411
0.3623519	0.1758533	0.4858936
0.2724489	0.1758674	0.4901137
0.4241606	0.1758752	0.5063746
0.7630043	0.1758768	0.1864687
0.2352043	0.1758796	0.1045909
0.594161	0.1758855	0.00996877
0.2085447	0.1759031	0.07296043
0.4921503	0.1759054	0.5295973
0.1651887	0.1759213	0.01187696
0.1625294	0.1759292	0.01714381
0.5537063	0.1759394	0.03086813
0.1625111	0.1759437	0.0240729
0.7631128	0.1759455	0.2104152
0.194315	0.1759606	0.006492672
0.1435982	0.1759614	0.18325
0.2136337	0.1759714	0.6684439
0.03155861	0.1759838	0.6414964
0.766365	0.175988	0.1820569
0.06198794	0.1759932	0.2662016
0.08838411	0.1760132	0.2309483
0.8237779	0.1760146	0.1813345
0.5798822	0.1760167	0.01328354
0.1759435	0.1760261	0.006964768
0.7643627	0.1760325	0.1839455
0.01100931	0.1760374	0.4827799
0.03720056	0.1760444	0.4480378
0.2719425	0.1760538	0.490597
0.02933327	0.1760595	0.6384173
0.02375428	0.1760673	0.6015143
0.4870362	0.1760684	0.5284802
0.05670257	0.1760815	0.4326851
0.3658485	0.1760825	0.486094
0.8086048	0.1760871	0.189256
0.7629639	0.1761091	0.1880285
0.7672728	0.1761272	0.1818752
0.063328	0.1761419	0.4252459
0.2336865	0.1761431	0.1415694
0.6386437	0.1761439	0.0125064
0.2079666	0.1761525	0.07250148
0.2281354	0.1761573	0.150821
0.3683723	0.1761694	0.4865105
0.2679712	0.1761727	0.4946379
0.3692529	0.1761728	0.4867501
0.02730902	0.1761759	0.6351836
0.3725994	0.1761857	0.4876606
0.5887107	0.1761901	0.5271016
0.2691671	0.1762038	0.005267769
0.3774928	0.1762045	0.4889921
0.7681921	0.1762062	0.1817308
0.3792473	0.1762138	0.4896396
0.7691211	0.1762214	0.1816271
0.2714428	0.1762256	0.4910931
0.3188905	0.1762296	0.4973636
0.1710119	0.1762375	0.1694546
0.226703	0.1762429	0.08584008
0.7642667	0.1762443	0.1846727
0.0282266	0.176246	0.4553433
0.2671833	0.1762736	0.4971553
0.6968019	0.1762788	0.0383049
0.1648635	0.1762794	0.01241098
0.3922839	0.1762827	0.4944505
0.2298363	0.1763017	0.148941
0.3968469	0.1763068	0.4961344
0.7629358	0.1763115	0.1895912
0.02552647	0.1763255	0.6317955
0.2313293	0.176332	0.1467469
0.766096	0.1763704	0.183355
0.2528632	0.1763707	0.551744
0.2709511	0.1763811	0.4916016
0.3471217	0.1763951	0.01401231
0.7963802	0.1764082	0.1893138
0.2953995	0.1764094	0.4932855
0.7641831	0.1764371	0.1854042
0.02624657	0.1764427	0.4572298
0.169058	0.1764512	0.00906461
0.0310846	0.1764551	0.5772322
0.2611245	0.1764792	0.5326952
0.7643746	0.176483	0.2200311
0.8325511	0.1764875	0.1650988
0.7305731	0.1764997	0.4121918
0.02402231	0.1765016	0.6282636
0.7629167	0.1765026	0.1911543
0.5558536	0.1765287	0.02943132
0.7666995	0.1765324	0.1829703
0.8223904	0.1765378	0.1836293
0.7782528	0.1765385	0.1841268
0.16252	0.1765388	0.01855788
0.7720454	0.1765578	0.1823378
0.3125261	0.176563	0.4977535
0.215206	0.1765828	0.6679078
0.2362653	0.1765862	0.112421
0.6248502	0.1765883	0.01050272
0.3253729	0.1765947	0.4963413
0.7125979	0.176595	0.04309496
0.7656927	0.1766125	0.1838541
0.5046732	0.176617	0.5309159
0.4695993	0.176624	0.5246716
0.2700017	0.1766304	0.4926608
0.1645762	0.1766321	0.01297147
0.2204544	0.1766436	0.6613271
0.7675487	0.1766467	0.1827673
0.7006891	0.1766476	0.03961155
0.7711419	0.1766648	0.1823621
0.1833424	0.1766665	0.165447
0.7629092	0.1766744	0.192719
0.6457344	0.176679	0.01441276
0.03044523	0.1766854	0.4533076
0.04739281	0.1766933	0.6569029
0.02282225	0.1766991	0.6246084
0.01401879	0.1767103	0.474911
0.2695523	0.1767156	0.4932157
0.2628895	0.1767197	0.5256271
0.2251924	0.1767247	0.08406031
0.7684379	0.1767305	0.1826132
0.7702371	0.1767358	0.1824121
0.4204307	0.1767415	0.5051902
0.2683021	0.1767488	0.4950184
0.2065834	0.1767492	0.07140349
0.1433751	0.176753	0.1830002
0.7640564	0.1767544	0.1868816
0.224547	0.1767566	0.6230887
0.7693346	0.1767606	0.1824942
0.2691253	0.1767692	0.4937893
0.02532631	0.176772	0.4581151
0.2141467	0.1767818	0.07580159
0.2687234	0.1767826	0.4943847
0.1627098	0.1768084	0.6793685
0.168528	0.1768186	0.009413418
0.7629257	0.1768279	0.1942863
0.7655355	0.1768293	0.1845197
0.0489565	0.1768453	0.3675845
0.7046527	0.1768455	0.04082666
0.2155617	0.1828938	0.6694358
0.2126247	0.1768689	0.6696846
0.1706672	0.1768799	0.04484317
0.8069031	0.1768832	0.1904154
0.5974237	0.1768958	0.5248935
0.05775351	0.1769016	0.4313523
0.2188291	0.1769139	0.6643036
0.0219322	0.176916	0.6208567
0.7093055	0.1769226	0.4458636
0.2307176	0.1769382	0.5892502
0.06378926	0.1769413	0.4235335
0.7941534	0.1769515	0.189921
0.7766304	0.1769533	0.1840425
0.05897034	0.1769683	0.2740184
0.1643266	0.1769786	0.01355676
0.05621579	0.1769828	0.2863638
0.07652596	0.1769835	0.2450778
0.5816238	0.176985	0.01219099
0.7639654	0.1770026	0.1883728
0.6773563	0.1770069	0.02916115
0.3760672	0.1770137	0.02871968
0.3603635	0.1770425	0.024997
0.7654183	0.1770505	0.1852083
0.4564728	0.1770566	0.5206892
0.1666296	0.1770711	0.03660903
0.1288044	0.1771001	0.6796439
0.7630448	0.1771007	0.1974216
0.0470975	0.177106	0.4405127
0.01583189	0.1771143	0.4711208
0.2035645	0.1771148	0.06956127
0.1626364	0.1771232	0.02000032
0.7672938	0.1771366	0.1840055
0.2227067	0.1771553	0.6546239
0.8209354	0.1771599	0.1858558
0.02134491	0.1771623	0.6170424
0.1680278	0.1771859	0.009791168
0.07196754	0.1771892	0.2503069
0.7679106	0.1772093	0.1836701
0.3098752	0.1772186	0.4981596
0.4514091	0.1772235	0.5191529
0.2236113	0.1772248	0.08235165
0.6523866	0.1772337	0.0174328
0.2234887	0.1772458	0.6324038
0.6407998	0.1772499	0.01281039
0.0244261	0.1772526	0.4589609
0.7653121	0.1772533	0.1859018
0.04763097	0.1772685	0.3168852
0.7687419	0.1772716	0.1834954
0.7632165	0.1772861	0.2005598
0.7704799	0.1772932	0.1832716
0.04762053	0.177305	0.4400731
0.7696087	0.1773058	0.1833675
0.0211741	0.1773082	0.6151226
0.5168913	0.1773113	0.5322023
0.7749821	0.1773119	0.1839913
0.1641143	0.177318	0.01416518
0.405113	0.1773194	0.4995899
0.2206658	0.1773212	0.1551137
0.236687	0.1773227	0.1208511
0.2346983	0.1773482	0.1023201
0.7669035	0.1773553	0.1844846
0.1732391	0.1773553	0.007565452
0.763324	0.1773629	0.2021303
0.7634214	0.1774185	0.2037055
0.03101442	0.1774531	0.5794118
0.3705725	0.1774666	0.02802829
0.7741489	0.1774681	0.183983
0.02109919	0.1774755	0.6132017
0.2393578	0.1774762	0.5723195
0.2365446	0.1774861	0.1176403
0.6144926	0.1774895	0.5173117
0.3651158	0.1775254	0.0267343
0.2754843	0.1775371	0.4907421
0.7638958	0.1775376	0.2067606
0.2577864	0.1775419	0.5430195
0.7395222	0.1775433	0.395093
0.09969886	0.1775447	0.2145409
0.1675594	0.1775519	0.01019857
0.2812531	0.1775593	0.006649347
0.8038407	0.1775657	0.09289285
0.6651089	0.1775706	0.02368999
0.01787316	0.1775758	0.4674603
0.7667293	0.1775837	0.1851103
0.7651358	0.1775923	0.1873054
0.7733109	0.1776061	0.1839893
0.1639389	0.1776494	0.01479507
0.2004029	0.1776515	0.06749417
0.02113298	0.1776682	0.611286
0.0641223	0.1776693	0.4217708
0.7919107	0.1776784	0.190215
0.6059328	0.1776839	0.5219347
0.7660239	0.1776923	0.2378801
0.1638996	0.1776973	0.0276223
0.2167844	0.1777075	0.6669635
0.05872734	0.1777105	0.4299585
0.7724693	0.1777221	0.1840137
0.4436386	0.1777444	0.5159464
0.2219502	0.1777519	0.08073406
0.06317027	0.1777543	0.2628538
0.03283266	0.177782	0.4511983
0.747607	0.1777857	0.3716031
0.5336648	0.1777981	0.03312749
0.274938	0.1778039	0.4910973
0.7683438	0.1778081	0.1845757
0.771626	0.1778081	0.1840614
0.7665924	0.1778146	0.1857593
0.2296953	0.1778422	0.594436
0.0497153	0.1778453	0.3068951
0.7691322	0.1778498	0.1843886
0.8182019	0.1778536	0.1092883
0.770783	0.1778568	0.1841369
0.7649935	0.1778609	0.1887256
0.7699418	0.1778657	0.1842407
0.5224118	0.1778688	0.5325472
0.819408	0.1778697	0.1880055
0.2233345	0.1778767	0.6418673
0.02128616	0.1778897	0.6093832
0.167125	0.1779152	0.01063634
0.824446	0.1779285	0.1185402
0.2332133	0.1779404	0.09588255
0.1638002	0.1779722	0.01544476
0.3358128	0.177996	0.007546244
0.583436	0.1780079	0.01129526
0.7664645	0.1780279	0.1864138
0.3250208	0.1780475	0.006577311
0.2743982	0.1780528	0.4914716
0.7681303	0.1780569	0.1851336
0.1719811	0.1780593	0.007999499
0.2248326	0.1780619	0.1524256
0.08417539	0.1780622	0.2356132
0.7643604	0.1780883	0.2124073
0.7648666	0.1780936	0.1901533
0.02016574	0.1780967	0.4639573
0.411474	0.1780987	0.5022491
0.3074235	0.1781052	0.4983333
0.2106579	0.1781315	0.07302196
0.02156608	0.1781424	0.6075007
0.8333425	0.1781463	0.1694022
0.2342026	0.1782139	0.1000883
0.1634111	0.178217	0.02294086
0.4127536	0.1782554	0.502784
0.2116982	0.1782564	0.6705591
0.06424598	0.1782586	0.4199387
0.2201241	0.1782601	0.6631504
0.7662278	0.1782628	0.2373105
0.1667264	0.1782747	0.01110481
0.2738668	0.1782793	0.4918693
0.1636977	0.1782855	0.01611259
0.7679406	0.178297	0.1857185
0.803876	0.1782994	0.1924779
0.7647491	0.1783091	0.1915837
0.04968517	0.1783126	0.4380333
0.6466544	0.1783126	0.502364
0.6854727	0.1783132	0.03202041
0.04587222	0.1783331	0.441247
0.1778493	0.1783422	0.006731402
0.2267711	0.1783456	0.1508856
0.4187956	0.1783514	0.505253
0.06447606	0.178361	0.6660346
0.04344203	0.1783622	0.6548878
0.7211746	0.1795465	0.4306966
0.726162	0.1783659	0.4216775
0.2339883	0.1783691	0.1394101
0.8329905	0.1783778	0.1723257
0.6512416	0.1783848	0.4999278
0.7662401	0.1783907	0.1877412
0.6419536	0.1784024	0.5045367
0.6430623	0.1784105	0.01312937
0.6360143	0.1784156	0.01152446
0.7697211	0.1784163	0.1854717
0.02196826	0.1784259	0.6056451
0.02812311	0.1784365	0.5675408
0.03070891	0.1784558	0.5815814
0.7703609	0.1784569	0.1851257
0.05957574	0.1784727	0.428468
0.7037675	0.1784734	0.4542036
0.2733463	0.1784798	0.4922933
0.7671905	0.1784887	0.2844269
0.7646466	0.1784915	0.1930204
0.1942469	0.178501	0.16198
0.2336772	0.1785038	0.09795516
0.1799717	0.1785252	0.0536752
0.2366707	0.1785299	0.1207286
0.77547	0.1785299	0.1856384
0.7677852	0.178538	0.1863268
0.2654713	0.178546	0.5152967
0.2286102	0.1785487	0.1491623
0.02845827	0.178561	0.4547524
0.8349747	0.1785637	0.1602882
0.6140315	0.1785921	0.5180492
0.05973391	0.1785931	0.2703874
0.4309732	0.1785933	0.51072
0.02640795	0.1785949	0.4566516
0.8321675	0.1786119	0.175187
0.2317032	0.1786148	0.1447754
0.3893366	0.1786235	0.02890011
0.1663639	0.1786294	0.0116029
0.4145846	0.1786372	0.5036806
0.7645748	0.1786421	0.194465
0.2302855	0.1786448	0.147146
0.2322881	0.1786611	0.09376712
0.7660469	0.178683	0.1890881
0.1346269	0.1786851	0.187563
0.7694342	0.1786854	0.1858655
0.3455368	0.1786879	0.01221812
0.2235591	0.1787172	0.6532402
0.2287123	0.1787238	0.6005711
0.1738285	0.1787292	0.04729581
0.05245388	0.1787296	0.3834264
0.8030347	0.1787332	0.1929104
0.02248231	0.1787383	0.6038212
0.05310681	0.1787449	0.2953135
0.2791311	0.1787475	0.4915987
0.7676373	0.1787621	0.1869413
0.1708065	0.178779	0.008535784
0.05051322	0.1787858	0.3779535
0.649803	0.1787907	0.01577774
0.773915	0.1787993	0.1856725
0.2089032	0.1788036	0.07164865
0.6323415	0.1788805	0.5083761
0.1635994	0.1788833	0.01749342
0.4181469	0.1788845	0.5052274
0.03995579	0.1788914	0.4456309
0.218253	0.1788944	0.6659161
0.7645222	0.1789002	0.1973617
0.7731337	0.1789011	0.1857165
0.1690914	0.1789044	0.03967175
0.4261344	0.1789177	0.5087233
0.7490724	0.178921	0.3689694
0.2909054	0.1789237	0.4935858
0.2167664	0.1789314	0.1558954
0.2362776	0.1789352	0.5779772
0.02223875	0.1789361	0.46083
0.7658698	0.1789373	0.1904446
0.4160465	0.1789421	0.5043964
0.7345865	0.1789443	0.4072604
0.7709508	0.1789593	0.1862718
0.7723512	0.1789763	0.1857808
0.7716292	0.1789689	0.186003
0.7691656	0.1789711	0.1863456
0.8312302	0.1789751	0.1780024
0.1660377	0.1789784	0.01212913
0.4170372	0.1789967	0.5048233
0.3380458	0.1790109	0.493659
0.6600419	0.1790151	0.4944249
0.623021	0.1790164	0.5128577
0.424663	0.1790264	0.5081222
0.207026	0.179031	0.0704592
0.2632	0.1790314	0.5286924
0.2313892	0.1790369	0.09153648
0.07367946	0.1790374	0.2475635
0.6276088	0.1790383	0.5104659
0.5853241	0.1790575	0.01060118
0.04717138	0.1790611	0.3661842
0.7645221	0.1790683	0.2002645
0.02308559	0.1790742	0.6020265
0.829571	0.1790777	0.128379
0.7790187	0.1790982	0.1873247
0.05670659	0.1791467	0.394244
0.7673669	0.1791499	0.1881904
0.4178042	0.1794638	0.5053475
0.4188871	0.1791618	0.5056601
0.04782863	0.1791635	0.310482
0.03072195	0.1791651	0.4526953
0.06029509	0.1791768	0.4268795
0.3576631	0.179205	0.02255241
0.7689933	0.1792225	0.1869123
0.3578862	0.1792228	0.487669
0.06420754	0.1792378	0.415929
0.2353055	0.1792378	0.1054391
0.02451666	0.1792405	0.4583849
0.4213521	0.1792709	0.5067696
0.7706738	0.1792719	0.1865991
0.538816	0.179291	0.03272266
0.4207516	0.1793153	0.5065243
0.4195969	0.1792922	0.5060187
0.7503027	0.1792938	0.366123
0.1657479	0.1793208	0.01268203
0.2780162	0.1793208	0.4921609
0.2362288	0.1793225	0.1137912
0.7874915	0.1793414	0.1905691
0.2675618	0.1793448	0.5038197
0.6935138	0.1793491	0.03475782
0.1938278	0.1793507	0.06277993
0.2571609	0.1793757	0.546093
0.2303533	0.1793936	0.08936479
0.1606406	0.179416	0.1723335
0.06356537	0.1794384	0.4133229
0.1658683	0.1794389	0.03097252
0.02887096	0.1794417	0.5695641
0.04880443	0.1794459	0.372769
0.8301895	0.1794478	0.1807684
0.777611	0.1794483	0.1873062
0.1636364	0.1794513	0.01891127
0.04546065	0.179452	0.3194695
0.7688267	0.1794576	0.1874858
0.1826806	0.1794625	0.006363165
0.03019787	0.1794668	0.5837312
0.7671241	0.1794681	0.1894616
0.1697325	0.1795038	0.009182955
0.05217697	0.1795285	0.4355716
0.03530052	0.1795448	0.4490335
0.2349205	0.1795498	0.580913
0.06462168	0.1795584	0.2596366
0.3612837	0.1795609	0.4875913
0.2225994	0.1795636	0.6587978
0.8161145	0.1795743	0.1920233
0.7424682	0.1795774	0.3896435
0.07979717	0.1795999	0.2402216
0.02173569	0.1796064	0.5568102
0.7704002	0.1796092	0.1869931
0.7414434	0.1796177	0.04867738
0.06287873	0.1796269	0.4105171
0.2502743	0.1796271	0.5584291
0.1751343	0.1796432	0.007216171
0.8349767	0.1796446	0.1499055
0.7414337	0.179649	0.04865624
0.1654944	0.1796558	0.01326015
0.5401548	0.1796605	0.5336554
0.06102532	0.1796741	0.4050177
0.7100989	0.1796776	0.03976947
0.697608	0.1796871	0.03608741
0.2107362	0.179694	0.6713363
0.04363135	0.1797054	0.3420854
0.3647026	0.1797422	0.4878627
0.2291422	0.1797471	0.08728503
0.7668973	0.1797475	0.1907444
0.7761883	0.1797583	0.1873221
0.02446499	0.179786	0.5985048
0.1851092	0.1797884	0.1637477
0.2212304	0.179816	0.1536375
0.2342972	0.1798228	0.5824087
0.2334661	0.1798444	0.5838186
0.1692387	0.1798647	0.009550825
0.05719423	0.179867	0.2786932
0.7685135	0.1798703	0.1886546
0.7702124	0.1798707	0.1875176
0.7017644	0.1798801	0.03735706
0.2769002	0.1798816	0.4927424
0.207192	0.1798872	0.07010491
0.05294032	0.179901	0.4348174
0.2364544	0.1799064	0.1190236
0.2358145	0.1799098	0.1095726
0.7746829	0.1799214	0.1874563
0.7738461	0.1799239	0.1874345
0.2040469	0.1799241	0.06828342
0.7505343	0.1799317	0.3662
0.3905197	0.1799478	0.4955503
0.3680387	0.1799587	0.4881747
0.02036445	0.1799595	0.6157537
0.2149362	0.1799618	0.0747287
0.2357888	0.1799708	0.130758
0.1652775	0.1799824	0.013862
0.1638	0.180001	0.02033729
0.7666792	0.1800019	0.1920329
0.8222906	0.1800084	0.1897024
0.8290577	0.1800162	0.1834799
0.5413615	0.1800246	0.03227714
0.7734155	0.1800476	0.1878752
0.3540711	0.1800588	0.01888738
0.3196918	0.1800619	0.4997788
0.03962472	0.1800849	0.6526694
0.8003871	0.1800983	0.1942715
0.227779	0.180108	0.08529832
0.7665767	0.1801103	0.192682
0.7700287	0.1801164	0.1880495
0.2196301	0.1801234	0.6648064
0.5872762	0.1801261	0.01010248
0.5711582	0.1801433	0.01513199
0.2686084	0.1801435	0.5018483
0.3026094	0.1801465	0.4983899
0.02032638	0.1801776	0.6138137
0.1260289	0.1801866	0.1923915
0.8357092	0.1802034	0.1695777
0.766482	0.180204	0.1933355
0.7682236	0.1802157	0.1898479
0.2267704	0.180216	0.6155999
0.1687766	0.1802229	0.00994966
0.8363184	0.1802267	0.1649193
0.4831235	0.1802277	0.03119471
0.07759813	0.1802314	0.2425261
0.04920185	0.1802329	0.3042313
0.7583714	0.1802363	0.05696862
0.2667808	0.1802381	0.5121741
0.697982	0.1802459	0.4623326
0.6732858	0.1802485	0.0262124
0.06076582	0.1802644	0.2668487
0.04917644	0.1802714	0.3042427
0.2243276	0.1802767	0.6518255
0.1869111	0.1802837	0.6770957
0.7331207	0.1802965	0.04518591
0.1650972	0.1802999	0.01448614
0.1205385	0.1803051	0.6796726
0.7729419	0.180323	0.1879885
0.1738584	0.1803328	0.00758043
0.668465	0.1803402	0.4885332
0.7663234	0.1803573	0.1946544
0.3494069	0.1803664	0.01451588
0.3135953	0.1803788	0.5001747
0.7748813	0.1804078	0.06620804
0.647215	0.1804139	0.01434344
0.02040688	0.1804227	0.6118826
0.2757904	0.1804232	0.4933508
0.02948526	0.1804435	0.5716328
0.3337725	0.180455	0.006837312
0.5735088	0.1804651	0.01371331
0.02594575	0.1804743	0.5950233
0.02265677	0.180483	0.4599645
0.2262969	0.1804836	0.08339993
0.771438	0.1804854	0.1881453
0.1643098	0.1804873	0.02181028
0.07565849	0.1804931	0.2447556
0.1770511	0.180508	0.165526
0.2253829	0.1805173	0.1509119
0.7679478	0.1805229	0.1910541
0.3229933	0.1805425	0.006919506
0.6403243	0.1805479	0.01212914
0.2343211	0.1805499	0.1372248
0.769676	0.1805533	0.1891367
0.168348	0.1805771	0.01038015
0.7746488	0.1805921	0.1886774
0.1649536	0.1806072	0.01513108
0.7830022	0.1806076	0.07100845
0.1798408	0.180609	0.006526224
0.7660968	0.1806138	0.197308
0.7380072	0.1806143	0.4018896
0.1767462	0.1806342	0.6787123
0.3602049	0.1806649	0.02411362
0.2752441	0.1806719	0.49368
0.2608722	0.1806793	0.538918
0.8278422	0.1806832	0.1861309
0.1719122	0.1806945	0.04245451
0.02061319	0.1806979	0.6099682
0.7728148	0.1807061	0.1884126
0.4828765	0.1807121	0.5301966
0.5438444	0.180724	0.03159487
0.02652116	0.1807371	0.4560117
0.7712386	0.1807409	0.1886354
0.05437985	0.1807695	0.4328762
0.2273466	0.1807734	0.1493392
0.7659175	0.1807805	0.1999727
0.7676798	0.180801	0.1922678
0.5732269	0.1808164	0.01366034
0.7655676	0.1808316	0.2053832
0.6849956	0.1808344	0.4754175
0.7991918	0.1808403	0.1949165
0.6334073	0.1808418	0.01099994
0.2697865	0.180848	0.4999143
0.7658517	0.1808503	0.201307
0.02863139	0.1808652	0.4540944
0.4032075	0.1808667	0.5002015
0.2321571	0.1808767	0.1427986
0.2747103	0.1808908	0.494041
0.8207296	0.1808933	0.1919362
0.7657741	0.1808974	0.2026456
0.1648466	0.180904	0.01579495
0.2415114	0.1809067	0.005189364
0.1643628	0.1809192	0.0226775
0.7656954	0.1809242	0.203992
0.7693417	0.1809261	0.1902502
0.1679536	0.1809263	0.01084145
0.2291915	0.1809305	0.1475024
0.7829747	0.1809421	0.1906645
0.5582101	0.1809505	0.5337539
0.2307861	0.1809527	0.1452893
0.5005746	0.1809628	0.532855
0.2349681	0.1809752	0.1029414
0.3439554	0.1809756	0.01042791
0.02094809	0.1810048	0.6080777
0.223578	0.1810062	0.6574834
0.7988644	0.1810227	0.1950689
0.7986375	0.1810254	0.1950432
0.7989438	0.1810272	0.1950832
0.1726569	0.1810382	0.008041417
0.02740391	0.1810459	0.5915187
0.7984558	0.1810485	0.1950427
0.2741945	0.1810692	0.4944441
0.7726656	0.1810698	0.1887974
0.02157066	0.1810732	0.4610063
0.7764581	0.1810749	0.1892871
0.2324014	0.1810752	0.588489
0.7657503	0.1810775	0.2052728
0.7982763	0.1810929	0.1950629
0.0286407	0.1811118	0.5879546
0.2113068	0.1811146	0.07191087
0.1681217	0.1811186	0.03419251
0.7907453	0.1811288	0.07638055
0.775882	0.1811367	0.1894797
0.02238061	0.1811446	0.6298529
0.270414	0.1811595	0.4989626
0.798084	0.1811604	0.1951034
0.2097528	0.1811728	0.6720404
0.5741135	0.1811799	0.01306392
0.1647759	0.1811911	0.01647423
0.7246675	0.1811931	0.0420698
0.7708497	0.1812004	0.1896401
0.589273	0.1812063	0.009764122
0.2736979	0.1812077	0.494887
0.02456129	0.1812194	0.4577544
0.3437831	0.1812249	0.01023284
0.7978288	0.1812594	0.1951654
0.7690187	0.1812626	0.1913775
0.7741511	0.181266	0.189189
0.1675939	0.1812696	0.01133229
0.1647271	0.1812959	0.02357742
0.04699551	0.1812962	0.3713213
0.56317	0.1813048	0.533781
0.7724521	0.1813335	0.189246
0.3646163	0.1813419	0.02601981
0.02140209	0.1813433	0.6062167
0.7559462	0.1813447	0.3539559
0.2258563	0.1846805	0.6262029
0.2245627	0.1813599	0.6342641
0.5462295	0.1813672	0.03063258
0.06627243	0.1813716	0.256526
0.2727617	0.1813819	0.4958668
0.797484	0.1813988	0.1952529
0.220894	0.1813988	0.6636572
0.270976	0.1814042	0.4980934
0.2563259	0.1814113	0.5492566
0.8265532	0.1814352	0.1887221
0.02992902	0.1814376	0.5737471
0.7973693	0.1814473	0.1952832
0.2665059	0.1814546	0.5180656
0.2173933	0.1814601	0.154502
0.2714706	0.1814614	0.497468
0.2863871	0.1814645	0.4943743
0.0546528	0.1814823	0.2875015
0.05575307	0.1814823	0.6631565
0.04362784	0.181503	0.322485
0.1175859	0.181508	0.1975213
0.6042682	0.1815108	0.5242293
0.02114091	0.18153	0.6261207
0.2677223	0.1815363	0.509988
0.7687022	0.181566	0.192514
0.7970209	0.1815945	0.1953752
0.7704743	0.1816001	0.1906722
0.1672692	0.1816062	0.01185145
0.5750102	0.181607	0.01251875
0.8125139	0.1816287	0.1955836
0.0309239	0.1816313	0.452029
0.6816578	0.1816435	0.02876014
0.7806558	0.1816616	0.1907068
0.3917171	0.1816738	0.02890651
0.2094786	0.1816772	0.07052323
0.6197899	0.1816842	0.01006956
0.7685526	0.1816912	0.1930909
0.7980256	0.181711	0.08239505
0.2124013	0.1817264	0.006092215
0.1647412	0.1817417	0.01786325
0.1715471	0.1817487	0.00861051
0.3505807	0.1817662	0.4907431
0.2076442	0.1817663	0.069251
0.04979327	0.1817716	0.3004063
0.775377	0.1817748	0.1899636
0.2472758	0.1817775	0.5642971
0.768413	0.1817963	0.1936754
0.5693111	0.1817976	0.5334059
0.2598571	0.1818036	0.005020368
0.7720305	0.1818133	0.1901681
0.4093234	0.1818178	0.5028991
0.1776129	0.1818406	0.1648183
0.03595222	0.1818609	0.650261
0.7964019	0.1818674	0.1955427
0.177124	0.1818735	0.006902303
0.7682858	0.1818837	0.1942672
0.09050395	0.1818892	0.2238806
0.7736651	0.1818969	0.1898835
0.2359608	0.1818988	0.128207
0.8190675	0.1819027	0.1940461
0.8371959	0.1819097	0.1695018
0.8196613	0.1819256	0.1064361
0.1669799	0.1819351	0.01239767
0.5484991	0.1819401	0.02940286
0.02028126	0.1819456	0.6222776
0.8262593	0.1819461	0.1158717
0.1874791	0.1819517	0.05689335
0.04691742	0.1819535	0.3080166
0.7681698	0.181961	0.1948639
0.7701068	0.1819658	0.1917185
0.005719326	0.1819667	0.495846
0.2854835	0.1819726	0.494532
0.006299391	0.1819842	0.4915828
0.005424395	0.181987	0.5001503
0.7794855	0.1819938	0.1907454
0.4159935	0.1819978	0.5057231
0.03787935	0.1819995	0.4466444
0.2311802	0.1820099	0.5940324
0.05645871	0.1820236	0.4300729
0.1808805	0.1820368	0.05151488
0.007196143	0.1820514	0.4873833
0.05650613	0.1820522	0.430009
0.1656185	0.1820541	0.02530619
0.2286173	0.1820595	0.1476527
0.5759102	0.1820715	0.01201876
0.7959271	0.1820842	0.1956699
0.2345997	0.1821012	0.1006189
0.005478151	0.1821013	0.508787
0.171032	0.1821025	0.00893915
0.7679617	0.1821073	0.1960632
0.1724297	0.1821174	0.1665075
0.7161431	0.1821276	0.03924321
0.008392595	0.1821715	0.4832573
0.7783476	0.1822254	0.1910837
0.7677666	0.1822342	0.1972672
0.7716174	0.1822382	0.1911175
0.7955769	0.1822441	0.1957638
0.8123716	0.1822521	0.09755495
0.1667264	0.1822555	0.01296971
0.1648453	0.1822694	0.0192666
0.8251728	0.182271	0.1912391
0.233696	0.182282	0.09606991
0.7697441	0.1822949	0.1927759
0.02265312	0.1822982	0.4593287
0.006264895	0.1823098	0.5173777
0.8370575	0.1823161	0.1727155
0.3537776	0.1823171	0.4901949
0.8291274	0.1823544	0.1208475
0.4123085	0.1823845	0.5043477
0.01978617	0.1823914	0.618372
0.7732141	0.1823936	0.1907235
0.651329	0.1823987	0.01554621
0.7104255	0.1823995	0.4481951
0.1750741	0.1824031	0.04494526
0.6124347	0.1824104	0.5206031
0.7674031	0.1824164	0.1996903
0.6918407	0.1824178	0.4701157
0.03017306	0.1824259	0.5758984
0.7695721	0.1824299	0.1933153
0.7748756	0.1824344	0.1905474
0.8045992	0.1824348	0.08900244
0.550645	0.1824354	0.02793812
0.2244704	0.1824482	0.6561346
0.2366177	0.182451	0.1203308
0.1705464	0.1824535	0.009299081
0.3601339	0.1824626	0.02357988
0.04254151	0.182466	0.4429572
0.2379427	0.1824715	0.005237813
0.7672414	0.1824985	0.2009043
0.8383798	0.1825061	0.1596163
0.6768743	0.1825093	0.4829207
0.5761352	0.1825136	0.5323118
0.196925	0.1825394	0.6758129
0.7694108	0.1825428	0.1938637
0.1758359	0.1825444	0.007200161
0.7670685	0.1825552	0.2021229
0.5768198	0.1825583	0.01156366
0.01157731	0.1825598	0.4752752
0.1665092	0.1825665	0.01356632
0.05725481	0.1825703	0.4284998
0.2355269	0.1825815	0.1065518
0.7669004	0.1825861	0.2033514
0.3479867	0.1825864	0.0126567
0.6446289	0.1825921	0.01299934
0.771209	0.1826317	0.1920812
0.2341796	0.1826355	0.09834308
0.01968831	0.1826382	0.6164118
0.7326092	0.1826399	0.4143167
0.2841328	0.1826469	0.4949588
0.2601375	0.1826477	0.004960074
0.6901788	0.1826508	0.03145356
0.2361423	0.182654	0.1130761
0.3963354	0.1826588	0.02887047
0.1504318	0.1826921	0.1758153
0.8365042	0.1827001	0.1758588
0.2688078	0.1827072	0.5079467
0.222025	0.1827222	0.6624661
0.1706428	0.1827492	0.03724759
0.7944925	0.1827551	0.1960394
0.7606696	0.1827914	0.3413284
0.3570025	0.1827975	0.4897681
0.7666875	0.1827992	0.207153
0.1700921	0.1828005	0.009691319
0.1017817	0.1828076	0.6777447
0.4153263	0.1828145	0.5057909
0.7334703	0.1828227	0.4129079
0.7732102	0.1937861	0.2744822
0.7691145	0.1828252	0.2705662
0.01352452	0.1828319	0.4714473
0.1010213	0.1828371	0.6776155
0.7727673	0.1828413	0.1915895
0.1022552	0.1828617	0.6778383
0.5526813	0.1828656	0.02629423
0.1663286	0.1828671	0.01418625
0.777798	0.1828904	0.191365
0.7075642	0.1828947	0.03661208
0.6377082	0.182899	0.01139094
0.01970459	0.1829085	0.6144565
0.05541321	0.1829117	0.2836109
0.236361	0.182914	0.122896
0.2329883	0.1829316	0.09385964
0.008026883	0.1829317	0.5258323
0.3316826	0.1829396	0.006492773
0.235984	0.1829425	0.1109405
0.7743982	0.182944	0.1913067
0.04534651	0.1829482	0.3119998
0.7760819	0.1829498	0.1912364
0.02849247	0.183223	0.5882413
0.02971042	0.1829558	0.5841671
0.7298722	0.1829808	0.4193391
0.1026957	0.1829824	0.677938
0.7708035	0.1829856	0.1930581
0.05873352	0.1829867	0.2711969
0.4813747	0.1830277	0.03102825
0.0333073	0.1830445	0.4498731
0.6410539	0.1830596	0.5069899
0.8316864	0.1830606	0.1259559
0.1097415	0.1830638	0.2032624
0.6988363	0.1830855	0.03408148
0.09972073	0.1830933	0.6774311
0.05074922	0.1831014	0.2964096
0.2326578	0.1831024	0.1408104
0.05804192	0.1831149	0.4269131
0.7706102	0.1831313	0.1935589
0.16967	0.1831426	0.01011525
0.166185	0.1831569	0.01482777
0.01569565	0.1831573	0.4677466
0.6506265	0.1831667	0.5025097
0.3593858	0.1831681	0.02274059
0.1031134	0.1831726	0.6780463
0.2280217	0.1831772	0.1477778
0.3602513	0.1831954	0.4894942
0.4016398	0.1832022	0.02904976
0.8358254	0.1832047	0.178961
0.01984552	0.1832064	0.6125141
0.2322043	0.1832149	0.09151123
0.2313318	0.1832209	0.1433947
0.8236717	0.1832264	0.193646
0.1746137	0.1832311	0.007588675
0.7704278	0.1832537	0.1940699
0.2297997	0.1832593	0.1457496
0.7723221	0.1832598	0.1924695
0.6308028	0.1832912	0.01061076
0.342126	0.1833202	0.009006027
0.7702581	0.1833561	0.1945906
0.0255635	0.1833698	0.5644131
0.5933298	0.1833802	0.009414006
0.3635553	0.1834067	0.4896338
0.7739214	0.183411	0.1920898
0.05847078	0.1834117	0.4260486
0.03019676	0.1834121	0.5780741
0.2255891	0.1834276	0.6489418
0.1660783	0.1834366	0.01548717
0.5850216	0.183446	0.5308871
0.7772824	0.1834468	0.1919494
0.770099	0.1834468	0.1951179
0.7930838	0.1834475	0.1963671
0.03250267	0.1834523	0.6476157
0.201369	0.1834554	0.06474748
0.253214	0.1834669	0.5565409
0.7755809	0.1834675	0.1919177
0.2312843	0.1834723	0.08920973
0.1692808	0.1834788	0.01056985
0.1035938	0.1834853	0.6781872
0.04690021	0.1835044	0.3759538
0.09835612	0.183511	0.6772565
0.1783217	0.1835219	0.1639254
